212.164  31.0184  498.993  0.906486  -0.260393  0.332384
104.412  29.2656  473.988  0.307094  0.795346  0.522607
187.344  37.9107  455.029  -0.684512  0.728984  -0.00507834
189.411  38.0153  457.883  -0.115352  0.709969  0.694722
161.409  22.884  472.981  0.025631  0.749675  0.66131
212.734  29.0448  495.962  0.924584  -0.232613  0.301721
187.408  35.6097  459.986  -0.14849  0.735864  0.660648
188.408  37.0344  458.705  -0.131055  0.707871  0.694077
212.1  32.0264  499.983  0.906451  -0.26252  0.330803
191.327  7.44606  507.58  -0.126193  0.184518  0.974694
96.9266  98.0158  486.992  -0.918309  0.296427  -0.262373
96.9024  97.0219  485.987  -0.944516  0.236599  -0.227839
96.7398  98.0252  487.984  -0.966362  0.189408  -0.173981
95.7703  98.0207  490.988  -0.963254  0.201094  -0.178053
104.386  25.0278  473.981  -0.261382  -0.785948  -0.560326
103.409  25.0278  474.202  -0.158521  -0.558481  -0.81423
96.202  101.038  492.973  -0.852086  0.414306  -0.319844
96.0747  100.013  491.992  -0.851715  0.408401  -0.328314
212.768  28.0318  494.976  0.914772  -0.259383  0.309697
131.41  60.3206  432.998  0.063433  0.821499  0.566671
132.403  60.0578  432.963  0.177205  0.639551  0.748046
100.445  29.0726  470.228  -0.24315  -0.668959  -0.702404
102.392  28.0055  471.108  -0.182668  -0.724486  -0.664644
101.384  28.059  471.113  -0.100386  -0.748079  -0.655973
95.5639  96.025  489.984  -0.905736  0.30726  -0.291947
95.0946  95.0134  489.995  -0.873887  0.360125  -0.326545
96.5583  97.0342  487.975  -0.887701  0.326976  -0.324152
95.6995  102.028  495.981  -0.895121  0.387916  -0.219726
102.41  27.2453  471.966  -0.142127  -0.795798  -0.588647
103.438  27.6412  471.047  -0.22489  -0.760067  -0.609691
211.467  26.0234  496.987  0.908237  -0.258049  0.329419
211.552  25.0299  495.978  0.906365  -0.263406  0.330333
97.2326  98.1903  486.302  -0.831375  0.39822  -0.387603
97.6194  98.5344  485.847  -0.75257  0.423104  -0.5046
101.409  27.365  471.981  -0.185775  -0.806884  -0.560736
105.095  32.0278  470.981  0.26825  0.767916  0.581676
104.397  32.929  469.98  0.295161  0.866247  0.403109
104.406  32.0265  471.268  0.265555  0.781068  0.565167
96.5622  98.0329  488.976  -0.918015  0.284956  -0.275769
101.409  27.0278  472.619  -0.170241  -0.808734  -0.562998
96.0018  96.0222  487.987  -0.870363  0.338834  -0.357295
211.454  31.0566  500.944  0.900134  -0.268104  0.343335
211.125  30.0178  500.994  0.898271  -0.266244  0.349605
211.833  26.0279  495.981  0.908775  -0.257151  0.328635
95.7529  96.0211  488.988  -0.958932  0.20136  -0.19976
95.5638  95.0317  488.977  -0.91384  0.293831  -0.280286
197.41  38.8137  458.977  -0.219571  0.769194  0.600108
94.7627  95.0278  490.981  -0.889147  0.330094  -0.316947
96.7897  100.025  489.984  -0.953985  0.219487  -0.204301
96.7665  99.0231  488.986  -0.956293  0.217773  -0.195139
160.401  19.0278  477.981  0.503349  0.674491  0.540095
95.0022  93.0355  487.974  -0.797474  0.442277  -0.410398
106.384  23.514  474.853  0.0173806  -0.629246  -0.777011
106.409  23.0278  475.222  0.0324087  -0.603622  -0.796612
106.411  24.3364  473.974  -0.164749  -0.7033  -0.69154
105.409  24.0278  474.387  -0.0895091  -0.60793  -0.788929
108.415  26.0502  471.344  -0.19448  -0.733548  -0.651218
106.426  26.8237  471.033  -0.198297  -0.740317  -0.642347
107.415  26.6058  471.004  -0.177258  -0.723731  -0.666928
96.0368  94.0192  485.99  -0.867231  0.34859  -0.355521
188.407  35.8102  459.989  -0.156886  0.772985  0.61472
149.396  48.0167  438.602  -0.107253  0.734396  0.670193
97.7879  95.1008  482.412  -0.603345  0.5854  -0.541554
169.412  31.8762  461.964  -0.145569  0.813866  0.562523
149.23  53.0278  432.981  0.364277  0.756922  0.54256
210.562  22.0311  495.978  0.863417  -0.35  0.363333
210.607  24.0594  497.944  0.895459  -0.31997  0.309472
155.193  33.0278  457.981  0.720552  0.661631  0.207482
172.409  32.0278  462.685  -0.122316  0.858554  0.49792
171.413  32.3778  461.942  -0.164843  0.869123  0.466318
174.404  33.2978  460.997  -0.122182  0.913704  0.387578
198.701  85.0278  546.981  -0.906902  -0.0752668  -0.414564
198.587  86.0259  546.97  -0.907027  -0.101967  -0.40854
103.143  57.0271  445.961  0.829214  0.475753  -0.293366
104.271  55.0228  445.956  0.694721  0.572235  0.435787
103.409  57.0278  444.766  0.576819  0.745381  0.334197
174.407  33.7919  459.984  -0.146841  0.886313  0.43919
197.903  87.0278  547.981  -0.890263  -0.0684606  -0.450273
211.306  23.0274  494.982  0.890924  -0.292352  0.347539
96.578  104.027  495.982  -0.957222  0.232682  -0.172004
97.1618  96.9615  485.126  -0.842044  0.392673  -0.369824
96.6379  105.025  496.983  -0.965077  0.210164  -0.156387
195.41  39.9221  456.977  -0.179961  0.752048  0.634064
104.428  54.0156  446.967  0.735171  0.604979  0.305818
105.414  53.3686  446.981  0.453881  0.760255  0.464763
106.409  51.0278  448.588  0.522644  0.445585  0.726841
99.3642  101.261  494.962  0.807648  -0.468661  0.357858
99.8114  102.028  494.98  0.747572  -0.531257  0.398625
99.6409  101.011  493.993  0.767873  -0.505131  0.393972
146.374  23.0296  470.427  0.530995  -0.622316  0.575123
101.687  56.0347  442.967  -0.823578  0.314859  -0.471788
102.271  55.9817  441.941  -0.748286  0.0955385  -0.656461
98.4174  54.0459  449.023  -0.806298  0.576266  -0.133418
98.1436  54.0278  449.981  -0.862516  0.405959  -0.302098
98.4188  56.0347  450.972  -0.902501  0.249612  -0.35098
98.6619  57.0332  450.972  -0.91032  0.20575  -0.359145
98.8039  56.0262  449.984  -0.900775  0.243028  -0.359918
148.404  30.9833  461.958  0.135977  0.738461  0.660444
98.5398  55.0482  449.953  -0.889976  0.283925  -0.356833
100.492  103.867  491.606  0.914535  0.233328  -0.330431
100.618  105.031  492.974  0.930221  0.223207  -0.291319
100.854  104.037  492.97  0.928559  0.250029  -0.274343
146.244  23.1574  466.869  -0.0410411  -0.752611  -0.657185
100.84  108.042  495.969  0.90132  0.274195  -0.33532
149.915  24.7366  466.564  0.703769  -0.551878  0.447371
97.9618  98.9324  485.724  -0.571882  0.526473  -0.629108
145.408  25.3475  463.96  -0.0147295  -0.81231  -0.583039
145.41  26.067  462.966  -0.0240031  -0.814926  -0.579067
146.408  25.2947  463.972  -0.0466869  -0.818181  -0.573062
143.409  23.2939  466.981  -0.013796  -0.805137  -0.592928
142.409  25.0278  464.901  -0.677659  -0.0797672  -0.731037
97.6432  99.5087  486.701  -0.772339  0.445638  -0.452657
145.408  23.9704  465.96  -0.0284001  -0.824716  -0.564834
145.409  24.6208  464.978  -0.0141804  -0.824699  -0.565394
211.32  32.0075  502.009  0.898043  -0.266664  0.34987
144.361  21.2796  469.944  0.14371  -0.928825  -0.341513
144.409  21.0334  470.981  0.223221  -0.92181  -0.31692
189.407  36.9221  458.993  -0.118522  0.707717  0.696483
211.805  31.0254  499.984  0.904296  -0.265604  0.33422
97.2062  103.017  491.99  -0.902703  0.344379  -0.257933
186.406  38.2797  456.999  -0.176765  0.962601  0.205315
97.1211  102.02  490.988  -0.899411  0.343619  -0.270159
101.16  104.004  493.992  0.991137  0.0163263  -0.131834
100.453  103.023  493.982  0.946837  -0.292471  0.134013
163.408  26.1442  462.988  0.0748227  -0.80427  -0.589535
164.407  25.5015  463.995  0.0855333  -0.807669  -0.583399
99.0876  100.019  493.995  0.839046  -0.395309  0.373808
131.4  58.0311  426.871  -0.0586138  -0.605694  -0.793536
130.413  58.0474  427.024  -0.144687  -0.656109  -0.740667
130.409  59.0278  426.148  -0.0482032  -0.585042  -0.809569
135.434  57.0375  428.264  0.0547928  0.336199  -0.940196
134.399  58.028  428.551  0.298414  0.438938  -0.847516
108.409  25.5032  471.979  -0.2188  -0.753782  -0.619628
107.421  25.7374  472.016  -0.199018  -0.758435  -0.620619
104.408  25.0236  473.96  -0.276171  -0.829388  -0.48564
105.405  24.6889  473.97  -0.223866  -0.682525  -0.695733
106.41  25.0301  473.202  -0.205698  -0.745457  -0.63402
186.413  37.01  458.307  -0.154375  0.697072  0.700185
211.913  25.0292  494.979  0.908835  -0.260002  0.326218
97.4054  33.2149  466.97  -0.228102  -0.735704  -0.637738
98.3942  32.0571  467.944  -0.248281  -0.725813  -0.641523
97.4119  32.0342  468.302  -0.230485  -0.724094  -0.65005
93.4089  34.3789  466.981  -0.108738  -0.696096  -0.709667
93.4089  35.0278  466.283  -0.1356  -0.645658  -0.751491
109.406  54.0212  440.206  -0.258527  -0.634981  -0.727985
108.406  54.021  440.566  -0.265169  -0.63019  -0.729757
212.269  25.0292  493.98  0.910484  -0.262529  0.319528
143.966  28.0173  474.98  0.741834  -0.0194394  0.670302
143.386  27.034  475.334  0.700691  -0.203541  0.683815
141.41  27.0273  477.132  0.63616  -0.193301  0.746951
142.409  28.0278  476.5  0.625234  0.0175129  0.780241
140.409  27.0278  477.971  0.600741  -0.140884  0.786932
139.678  25.0278  477.981  0.596427  -0.232098  0.768378
140.403  26.03  477.703  0.618722  -0.217854  0.7548
135.346  59.611  428.98  0.221491  0.324064  -0.919741
146.094  27.0147  471.979  0.860656  0.106858  0.497848
145.251  27.9859  472.873  0.797803  0.525745  0.295132
136.017  56.4512  427.979  0.0239205  0.130283  -0.991188
135.409  55.9846  427.945  -0.108981  -0.241122  -0.964356
136.038  55.7717  428.02  0.0764029  -0.319446  -0.944519
101.32  105.282  495.003  0.906393  0.251473  -0.33943
100.919  105.024  493.983  0.916604  0.239571  -0.320067
123.415  53.0478  433.268  -0.206552  -0.661525  -0.720917
132.038  60.0278  427.981  0.85551  0.302369  -0.420327
126.409  61.0283  425.264  -0.161355  -0.653696  -0.739355
127.407  61.0208  425.048  -0.161469  -0.625498  -0.763335
127.411  60.0367  425.913  -0.169626  -0.641248  -0.74835
186.405  38.3559  456.003  -0.172214  0.927515  -0.331751
126.4  56.9762  429.236  -0.665597  -0.466443  -0.582591
126.276  58.0278  428.981  -0.97642  -0.0392692  -0.212279
126.409  58.3521  427.981  -0.567483  -0.574936  -0.589417
126.409  62.0278  424.396  -0.182885  -0.663321  -0.725643
127.409  62.0278  424.044  -0.175064  -0.69507  -0.697302
151.586  25.5678  465.359  0.521525  -0.225144  0.822995
186.407  33.603  462.991  -0.0950357  0.878593  0.46802
185.407  34.0198  461.99  -0.0874019  0.892293  0.442916
137.998  58.3677  433.245  0.0705919  0.576531  0.81402
137.41  58.0298  433.539  0.104601  0.601921  0.791675
138.412  57.0494  434.244  0.087293  0.644736  0.759405
131.405  56.0127  436.523  0.167478  0.63556  0.753668
133.411  57.0347  435.2  0.164572  0.639814  0.750703
132.41  57.0295  435.429  0.177573  0.630196  0.755857
139.531  60.0003  431.772  0.367362  0.831227  0.417261
143.004  28.033  475.987  0.690665  -0.0482591  0.721563
129.41  52.0305  432.869  -0.146022  -0.677937  -0.720472
130.408  52.0233  432.677  -0.142353  -0.680295  -0.718981
136.408  57.0256  434.603  0.135089  0.668129  0.731679
135.411  57.0362  434.784  0.136829  0.669218  0.73036
135.405  56.0085  435.741  0.134842  0.679971  0.720734
157.414  30.0319  461.351  -0.289065  0.71278  0.639051
141.144  57.7753  433.474  0.0175337  0.593555  0.804603
124.409  50.0278  435.79  -0.161441  -0.668522  -0.725958
142.403  25.0312  475.578  0.6584  -0.292774  0.693392
141.397  25.0331  476.515  0.647803  -0.277116  0.709618
125.409  49.0278  436.468  -0.150928  -0.664895  -0.73153
125.408  54.0218  431.896  -0.161485  -0.663609  -0.730442
124.407  54.0207  432.12  -0.171364  -0.668  -0.724162
141.407  26.029  476.86  0.63878  -0.229672  0.73431
140.392  25.035  477.402  0.623124  -0.256767  0.738774
108.397  24.7128  472.963  -0.279794  -0.744615  -0.606023
105.408  27.0235  471.14  -0.216897  -0.742223  -0.634082
105.41  28.0326  469.991  -0.197611  -0.73234  -0.651635
139.042  57.919  433.491  0.066504  0.592605  0.802743
139.409  26.0278  478.431  0.570474  -0.204612  0.79542
179.409  38.0569  454.981  -0.0609068  0.992584  0.105198
185.412  37.0144  458.08  -0.153591  0.697814  0.699618
185.403  36.0805  459.008  -0.153768  0.721147  0.675502
106.399  25.99  472.033  -0.205715  -0.757122  -0.620038
184.405  36.0458  458.814  -0.156943  0.707988  0.688565
183.406  35.6752  458.993  -0.155955  0.743653  0.650121
109.705  25.0278  477.981  0.268165  0.854747  0.444404
107.409  27.4738  474.998  0.255223  0.79935  0.543967
186.405  36.049  459.284  -0.16563  0.711898  0.682471
113.415  25.0274  472.112  0.264643  -0.00979265  -0.964297
198.409  86.0278  547.385  -0.896123  -0.116977  -0.428111
115.407  24.0294  472.687  0.241896  -0.0548038  -0.968753
142.391  27.033  476.284  0.657534  -0.205209  0.724941
110.409  27.0278  471.113  0.315426  -0.033361  -0.948363
111.409  27.0278  471.543  0.355748  0.0403716  -0.933709
141.409  29.0278  477.153  0.593322  0.0819972  0.800778
140.409  28.0278  477.979  0.585386  0.0336533  0.810056
141.385  28.0166  477.274  0.594036  0.0327487  0.803772
144.778  27.9726  474.007  0.815934  0.237311  0.527195
104.416  29.052  469.16  -0.085739  -0.656324  -0.749591
104.402  30.0092  468.5  0.242653  -0.393533  -0.886708
105.376  29.0159  469.15  0.260186  -0.308125  -0.915075
128.409  52.0262  433.078  -0.148629  -0.675545  -0.722183
168.409  31.4689  456.988  0.0305092  -0.756093  -0.653753
167.408  30.5533  457.993  0.0605811  -0.760434  -0.646584
167.411  31.4351  456.989  0.00514057  -0.727678  -0.6859
127.41  55.0334  430.487  -0.176255  -0.666006  -0.724824
169.409  34.0278  455.091  -0.388306  -0.156595  -0.908128
100.401  110.239  497.009  0.715098  0.527032  -0.459209
101.439  106.933  496.519  0.990864  -0.0852987  -0.104463
100.747  106.012  496.971  0.803007  -0.411632  0.430973
100.663  103.034  494.977  0.996143  -0.0591619  -0.0647941
132.405  60.0278  428.981  0.854592  0.362153  -0.37218
132.409  60.0278  428.989  0.424126  0.55483  -0.715737
132.401  59.0493  428.02  0.74394  0.451274  -0.492853
111.391  27.6864  473.991  0.192469  0.745061  0.638624
143.013  25.0273  474.982  0.677485  -0.273828  0.682666
143.394  26.0333  474.999  0.69093  -0.247194  0.679346
142.394  26.0336  475.978  0.664843  -0.250367  0.703775
126.419  60.219  426.002  -0.253133  -0.638714  -0.726614
125.409  61.0278  425.633  -0.33397  -0.703202  -0.627671
125.409  62.0278  424.576  -0.208593  -0.670436  -0.712043
128.409  59.0276  426.578  -0.167311  -0.656477  -0.735558
128.408  58.026  427.485  -0.170676  -0.66668  -0.72554
127.411  59.0347  426.808  -0.170271  -0.659973  -0.73174
185.406  35.2239  459.994  -0.146478  0.790494  0.594696
186.405  35.3921  459.999  -0.140455  0.791883  0.594301
140.45  24.0278  476.981  0.641116  -0.291081  0.7101
132.401  57.8685  427.001  0.189606  -0.325059  -0.926491
127.409  53.0274  432.355  -0.157727  -0.673376  -0.722279
128.409  54.0289  431.202  -0.156509  -0.675134  -0.720902
128.407  53.0208  432.148  -0.151801  -0.676094  -0.721009
143.41  24.027  474.163  0.66267  -0.30033  0.686054
210.235  29.0278  502.981  0.79984  -0.476076  0.365524
129.41  53.0312  431.928  -0.149576  -0.677936  -0.719743
139.409  24.0278  477.84  0.610114  -0.271249  0.744436
129.408  58.0261  427.257  -0.159928  -0.662454  -0.731832
129.413  59.0432  426.342  -0.157831  -0.655663  -0.738374
142.409  23.0278  474.693  0.647228  -0.304176  0.69898
207.886  32.0278  502.981  -0.801528  0.372585  -0.467689
176.413  36.9839  456.596  -0.076003  0.67145  0.737142
114.409  25.0278  472.371  0.258422  -0.0323308  -0.965491
113.409  26.0278  472.099  0.2551  -0.0104252  -0.966858
115.409  25.0278  472.644  0.239967  -0.042366  -0.969856
143.993  25.0287  473.98  0.698083  -0.268309  0.663845
143.594  24.0278  473.981  0.691899  -0.278601  0.666076
145.496  28.2112  471.768  0.572283  0.771258  0.278664
143.401  27.8425  469.973  -0.351351  0.889335  -0.292637
144.536  24.0278  472.981  0.724082  -0.256693  0.640168
114.409  26.9197  472.981  0.41949  0.86  0.290563
114.118  27.0278  472.981  0.311958  0.899223  0.306725
114.394  26.5903  473.978  0.319477  0.883183  0.343399
187.412  33.7415  462.968  -0.114022  0.872775  0.474618
136.409  53.0286  430.575  -0.126871  -0.696444  -0.706307
137.409  54.4625  428.982  -0.12546  -0.693583  -0.709368
137.409  53.0266  430.401  -0.12113  -0.698607  -0.705178
132.409  54.0272  430.351  -0.144065  -0.687622  -0.711633
132.409  53.0259  431.323  -0.138762  -0.688392  -0.711942
131.41  53.0319  431.515  -0.144755  -0.68597  -0.713085
184.406  34.4142  460.995  -0.103097  0.879578  0.46445
180.409  33.6821  461.981  -0.0478192  0.932544  0.357875
181.409  33.7107  461.981  -0.0222497  0.925065  0.379157
114.399  26.0013  475.008  0.215408  0.780031  0.587496
115.409  26.3125  472.981  0.36115  0.924379  0.12286
111.406  27.0086  474.697  0.11825  0.718608  0.685288
160.408  31.0738  461.022  -0.317068  0.926844  0.201066
210.75  34.0397  504.96  0.906961  -0.213009  0.363385
101.363  106.049  496.029  0.856596  -0.353627  0.375755
101.388  106.041  495.888  0.993582  0.0533394  -0.0997442
100.395  102.719  494.971  0.668718  -0.562951  0.485697
100.559  102.052  493.964  0.929091  -0.319848  0.185707
145.096  23.0278  471.981  0.783383  -0.218271  0.581953
183.409  95.0278  567.033  -0.764561  -0.0366013  -0.643511
113.393  26.9295  473.969  0.296821  0.882918  0.363805
185.981  95.0296  563.994  -0.747743  -0.0339947  -0.663118
209.435  24.0278  499.981  0.812431  -0.392172  0.431458
103.413  57.0316  446.288  0.73402  0.398006  -0.550278
102.515  58.0278  445.981  0.401579  0.790413  -0.462581
187.409  33.199  463.981  -0.0992735  0.869343  0.484135
106.414  55.0437  444.875  0.214044  0.662911  0.71745
188.409  33.8574  462.982  -0.103596  0.864165  0.492429
108.432  57.0552  442.56  0.375063  0.471769  0.797974
103.656  56.1002  446.04  0.861684  0.35895  -0.358685
143.409  29.0278  475.322  0.711588  0.268714  0.64918
104.263  54.9799  446.914  0.976107  0.207761  -0.0636363
145.055  28.3822  470.888  0.233396  0.89327  -0.384181
144.486  28.0642  469.965  0.0576905  0.927503  -0.369336
191.739  7.4406  507.6  -0.0106615  0.0983679  0.995093
135.409  53.0283  430.757  -0.130412  -0.694403  -0.70767
184.41  33.9291  461.978  -0.0862804  0.898501  0.430408
197.449  11.0413  504.966  -0.0907459  0.786934  0.610328
95.4836  83.0278  477.981  -0.923014  0.248805  -0.293499
197.516  10.5833  505.483  0.124818  0.539538  0.832658
207.893  15.0782  500.06  0.794754  -0.174492  0.581308
95.7069  81.028  474.982  -0.932255  0.240569  -0.270237
95.4495  81.1861  475.992  -0.878979  0.365736  -0.305996
95.4089  81.0278  475.833  -0.850328  0.375547  -0.368655
95.4089  82.0278  476.88  -0.0614234  0.723875  -0.687191
206.41  16.7755  499.908  -0.30861  0.674219  0.670961
205.441  15.4761  500.781  -0.203553  0.739765  0.641337
209.657  16.0245  496.958  0.737167  -0.672416  0.0666473
205.516  14.7914  501.554  0.086974  0.625898  0.77504
204.418  14.509  501.869  0.00152728  0.710837  0.703355
95.4459  82.1254  476.991  -0.944393  0.242901  -0.221634
133.409  54.2031  429.981  -0.135967  -0.690872  -0.710076
134.407  54.0167  429.975  -0.132588  -0.691464  -0.710139
134.407  53.0152  430.956  -0.131867  -0.693205  -0.708574
140.408  54.0247  428.922  -0.112108  -0.700306  -0.704984
139.409  53.0257  430.073  -0.112081  -0.700903  -0.704395
139.408  54.0241  429.082  -0.11345  -0.699888  -0.705184
137.409  52.0301  431.39  -0.118768  -0.699956  -0.704242
100.9  109.037  496.966  0.934685  0.274377  -0.226012
177.218  6.65345  503.84  -0.382115  0.180113  0.906392
100.777  107.034  494.973  0.948282  0.194551  -0.250823
151.406  42.7527  442.988  0.223176  -0.628156  -0.745394
152.401  41.0508  444.67  0.206056  -0.63441  -0.745027
151.407  42.034  443.595  0.149171  -0.655288  -0.740504
199.725  10.9068  504.874  0.311168  0.165065  0.93591
179.409  33.6248  461.981  -0.0905375  0.941067  0.325877
151.418  40.4005  444.986  0.170226  -0.62484  -0.76197
151.413  41.0149  444.486  0.116792  -0.643529  -0.756459
100.957  109.026  497.982  0.98384  0.172183  -0.0490999
101.049  103.084  492.931  0.90362  -0.397151  0.160443
100.587  101.957  492.047  0.973589  -0.226475  0.028863
100.862  103.021  491.986  0.960717  0.0745231  -0.267337
135.413  55.0464  428.799  -0.131607  -0.677326  -0.723815
138.409  52.0288  431.225  -0.112601  -0.701794  -0.703424
125.687  56.9751  431.001  -0.759945  0.471153  -0.447769
126.038  58.0278  430.981  -0.941379  0.316161  0.117677
126.25  58.0278  429.981  -0.945278  0.284809  -0.159163
125.414  55.0301  431.003  -0.16764  -0.590809  -0.789203
204.409  20.7505  490.981  -0.209711  0.810393  0.547069
126.418  55.0427  430.748  -0.23395  -0.617833  -0.7507
127.412  56.0379  429.567  -0.242886  -0.635781  -0.732659
159.754  10.675  491.019  -0.816493  -0.24716  0.521776
161.856  9.14503  493.152  -0.712501  -0.605052  0.355323
186.409  33.0469  463.981  -0.0950454  0.867898  0.487564
101.409  45.0278  456.943  0.232973  0.738877  0.632285
141.408  54.0228  428.765  -0.110152  -0.701301  -0.704304
142.409  55.0274  427.611  -0.102759  -0.686847  -0.719501
139.524  55.7985  427.478  -0.194832  -0.506688  -0.839826
139.354  57.1109  427.006  -0.444185  -0.130167  -0.886429
140.991  57.174  426.257  -0.348598  -0.438461  -0.828391
150.977  25.273  463.091  -0.120979  -0.910515  -0.395381
150.647  25.955  462.029  -0.227916  -0.800445  -0.554385
155.491  26.6695  459.754  -0.0514459  -0.802301  -0.594699
155.854  26.484  459.999  -0.00544756  -0.827802  -0.560993
155.196  26.0977  460.616  -0.0185029  -0.860365  -0.509343
155.653  24.8596  463.063  -0.218203  -0.897037  -0.384334
155.012  25.0789  462.901  -0.132584  -0.946456  -0.294352
156.063  25.3449  461.913  -0.129948  -0.875221  -0.465941
151.404  37.7588  453.992  -0.120547  0.763503  0.634454
208.303  33.0326  502.974  -0.859401  0.28274  -0.426013
156.874  24.2025  464.166  -0.0891706  -0.934682  -0.344118
157.435  24.6591  463.097  0.125154  -0.899241  -0.419169
206.728  33.9951  466.012  0.681335  0.535672  -0.498837
155.609  25.8352  461.095  -0.0308863  -0.880197  -0.473602
156.216  25.9667  460.785  -0.0354751  -0.857107  -0.513916
156.408  27.2372  458.977  -0.020401  -0.78513  -0.618995
206.421  30.1522  475.96  -0.234484  0.85099  0.469928
135.409  51.7871  431.98  -0.124111  -0.697511  -0.705744
145.412  45.5128  445.005  0.085389  0.772298  0.629495
142.409  47.6614  442.996  0.0679995  0.710606  0.700297
140.411  48.8646  441.995  0.125219  0.747225  0.652668
141.409  47.8415  442.98  0.13923  0.756394  0.639127
146.411  48.0124  443.113  -0.219469  0.520644  0.825084
148.404  44.0541  446.682  -0.0563418  0.719971  0.691713
144.409  27.9951  465.981  0.0124025  0.829373  0.558558
146.41  40.9425  441.992  -0.0444743  -0.749731  -0.660246
147.407  44.6569  445.96  -0.0573689  0.73239  0.678464
147.41  42.8412  447.981  0.0862119  0.755155  0.649853
144.409  52.032  430.361  -0.0605563  -0.707879  -0.703732
98.5625  93.7059  480.473  -0.360221  0.628717  -0.68917
99.3181  93.4259  480.069  -0.00329804  0.634407  -0.772992
150.437  37.3475  446.984  0.119578  -0.992116  -0.0375066
163.41  29.7843  463.969  -0.0565255  0.788778  0.612074
147.432  26.2588  468.998  0.41256  0.861091  0.297182
147.398  49.0505  437.94  0.189549  0.745017  0.639548
147.406  50.0145  436.83  0.162822  0.739269  0.65343
148.421  38.0468  446.99  -0.560809  -0.819627  -0.117072
174.409  32.929  461.981  -0.128835  0.92839  0.34856
147.405  28.7825  464.941  0.0677953  0.797357  0.599688
141.407  55.017  427.777  -0.116334  -0.678668  -0.725173
100.937  106.034  494.961  0.898131  0.276695  -0.341762
210.119  32.0185  476.913  -0.625796  0.475758  0.618088
150.412  40.0311  444.739  0.81998  0.101112  -0.563391
150.356  39.0211  444.416  0.802088  -0.0732285  -0.592699
143.409  29.0278  472.347  -0.157415  0.822916  -0.545921
212.413  31.6337  478.978  -0.0439355  0.868682  0.493417
212.464  31.0366  479.972  -0.3237  0.759141  0.564734
213.338  29.9183  482.004  -0.226629  0.82227  0.522026
128.409  53.113  439.978  0.179166  0.754653  0.631188
127.409  53.3663  439.979  0.195384  0.762656  0.616588
127.412  52.5539  440.99  0.199011  0.764459  0.613186
98.6628  92.3512  479.207  -0.29804  0.645861  -0.702876
147.409  52.0278  430.803  0.182086  -0.218741  -0.958643
213.814  31.0177  474.988  0.875255  0.430321  -0.220799
212.927  32.0252  473.982  0.825666  0.45427  -0.334536
210.543  31.0635  478.008  -0.62745  0.509061  0.589206
211.38  28.1197  483.007  -0.447163  0.765257  0.463062
210.386  28.7848  481.006  -0.419848  0.770196  0.480131
210.405  28.194  481.994  -0.347909  0.810172  0.471785
151.402  36.5642  449.956  -0.0996969  -0.794712  -0.598743
150.408  36.6391  449.958  -0.0287255  -0.80947  -0.586458
210.416  29.4532  479.972  -0.425279  0.770242  0.475252
209.393  28.9447  480.003  -0.346537  0.81013  0.472865
153.368  41.0505  444.981  0.403375  -0.567221  -0.718018
152.405  42.0369  443.873  0.241837  -0.607793  -0.756375
99.9301  86.2108  472.556  0.29595  0.688379  -0.66223
207.423  26.48  482.958  -0.310581  0.794076  0.522478
208.403  26.8176  482.991  -0.296295  0.804572  0.514658
208.421  27.4777  481.961  -0.295477  0.808876  0.508343
144.409  25.3243  463.985  0.0107622  -0.813345  -0.581682
144.4  26.0897  462.966  -0.0386162  -0.775542  -0.630113
206.409  26.7617  481.981  -0.301624  0.790374  0.533227
206.409  25.9797  482.981  -0.363613  0.762545  0.535079
212.431  27.1087  485.972  -0.450456  0.815808  0.362692
155.107  35.0339  453.992  0.999808  -0.0185109  -0.006387
155.055  35.0823  453.041  0.846787  -0.331582  -0.415939
202.415  42.1166  455.973  0.400869  0.903732  -0.150241
202.4  42.2074  456.984  0.34876  0.934112  -0.0761722
152.398  39.5599  446.003  0.279743  -0.673687  -0.684024
154.76  39.0106  447.971  0.477407  -0.642344  -0.599564
153.381  39.9864  446.018  0.333223  -0.690973  -0.641498
212.434  29.4563  481.955  -0.459627  0.742479  0.487306
212.432  28.8092  482.958  -0.445283  0.758081  0.476483
99.3952  82.5938  469.685  0.129978  0.658877  -0.740937
215.246  29.0337  478.982  0.968336  0.245073  -0.0475957
214.648  30.0178  476.985  0.910987  0.389337  -0.136088
214.743  30.0147  477.984  0.904837  0.420755  -0.0650805
147.409  28.2097  459.983  -0.0397149  -0.768344  -0.638804
146.409  28.2344  459.981  -0.0925698  -0.769777  -0.631566
147.412  29.0749  458.99  -0.0891586  -0.71789  -0.690423
145.408  26.7183  462.012  -0.076486  -0.782186  -0.618333
146.402  26.7892  461.925  -0.043724  -0.807431  -0.58834
149.482  42.015  442.912  0.594626  -0.532095  -0.60274
152.451  37.0302  449.007  -0.0251717  -0.791967  -0.610045
152.407  36.4301  449.975  -0.0738621  -0.81016  -0.581537
147.409  25.9043  462.988  -0.0898771  -0.80949  -0.580214
146.41  25.9905  462.993  -0.0599866  -0.809787  -0.58365
150.753  39.0374  445.008  0.833156  -0.0696701  -0.548632
150.409  51.0278  431.082  -0.0709732  -0.690972  -0.719389
101.435  107.612  496.979  0.91104  0.346088  -0.224121
148.243  25.2425  463.808  -0.0880517  -0.838767  -0.537324
143.409  26.136  462.981  -0.0448236  -0.740184  -0.670909
144.409  27.0476  461.981  -0.162035  -0.694163  -0.701343
117.287  58.1044  432.002  -0.736575  -0.656866  -0.161194
119.409  58.0278  430.306  0.0586988  -0.241643  -0.968588
146.406  27.4696  460.974  -0.131511  -0.769  -0.625574
145.409  28.0278  460.794  -0.285998  -0.716024  -0.6368
147.408  27.4235  460.967  -0.0541323  -0.788332  -0.612863
151.286  24.9335  464.142  0.0691515  -0.98841  -0.135144
193.409  11.7771  500.981  -0.479654  0.83501  -0.26961
156.836  16.3836  486.277  -0.587932  0.313268  0.745788
113.411  56.6647  440.988  0.221153  0.711905  0.666545
111.416  56.3562  442  0.235913  0.69652  0.677646
112.41  56.0507  441.984  0.211966  0.712517  0.668872
113.417  58.0412  439.953  0.281267  0.485098  0.827991
112.409  59.029  439.705  0.269004  0.514488  0.814211
112.424  58.053  440.301  0.299125  0.502828  0.81098
95.6433  78.0278  472.981  -0.95664  0.122117  -0.264437
111.401  58.0157  440.71  0.306231  0.498106  0.811242
110.411  57.0276  441.681  0.294459  0.56673  0.769487
154.409  51.0278  430.908  -0.0471304  -0.698863  -0.713701
112.416  57.0441  440.949  0.261423  0.608641  0.749142
111.414  57.0345  441.31  0.265411  0.614113  0.743251
95.5872  80.0278  474.981  -0.966236  0.122806  -0.226511
109.435  57.0335  442.064  0.315953  0.567331  0.760466
148.409  33.9993  453.23  0.0110764  -0.731345  -0.681918
148.408  34.2666  452.947  0.0015214  -0.730372  -0.683048
149.408  33.3169  453.96  -0.0208886  -0.739174  -0.673191
214.424  28.5767  483.988  0.331403  0.80169  0.497459
214.563  29.0434  482.991  0.661383  0.640116  0.390927
214.426  29.7962  481.986  0.287093  0.836531  0.466684
150.407  35.8538  450.966  -0.0653312  -0.773925  -0.629898
151.407  35.7406  450.966  -0.0858336  -0.76793  -0.634757
151.403  34.0544  452.956  -0.133777  -0.738656  -0.660675
150.408  35.0159  451.968  -0.076311  -0.759746  -0.645726
151.406  34.9038  451.961  -0.0914201  -0.757729  -0.646134
148.412  35.9579  450.998  -0.0989347  -0.73979  -0.665524
147.409  36.1885  450.981  -0.154921  -0.688861  -0.708146
148.397  36.8657  449.944  -0.174976  -0.778934  -0.6022
148.404  28.6423  464.958  0.170024  0.801032  0.573968
149.512  25.4218  463.252  -0.126475  -0.849795  -0.511715
212.377  22.0155  492.831  0.736003  0.274807  0.618692
213.08  22.0245  491.987  0.853959  0.128507  0.504222
149.409  35.0701  451.985  -0.0471122  -0.759015  -0.649367
148.407  35.1466  451.959  -0.0482086  -0.734004  -0.677432
205.409  17.366  489.981  0.22261  -0.862712  -0.454063
206.402  17.0923  490.996  0.259857  -0.850902  -0.456553
205.408  17.032  490.631  0.200549  -0.86338  -0.462985
148.407  28.1735  459.959  -0.0510558  -0.772512  -0.632945
155.208  32.1171  456.009  0.921184  -0.00627524  -0.389076
210.394  17.1536  493.99  0.439454  -0.830898  -0.341304
207.4  16.9235  491.993  0.332712  -0.832486  -0.443024
208.423  17.364  491.963  0.33961  -0.826103  -0.449688
208.407  16.8003  492.983  0.329096  -0.832053  -0.446524
154.414  33.0804  453.977  0.419049  -0.632823  -0.651102
154.923  32.9426  454.942  0.92008  -0.233533  -0.314509
92.4089  43.54  457.981  -0.631434  -0.522862  -0.57263
100.247  98.927  487.738  0.919641  0.254274  -0.299342
100.298  97.8426  486.835  0.927596  0.265246  -0.26308
99.9111  98.3463  486.393  0.806402  0.407515  -0.428542
98.7926  118.98  514.998  -0.892754  0.431755  -0.128754
153.408  31.0298  455.661  -0.127722  -0.67045  -0.730879
152.405  31.0908  455.971  -0.246447  -0.742843  -0.622454
152.435  31.9063  454.984  -0.133283  -0.711503  -0.689927
99.1644  97.3326  484.413  0.378105  0.665445  -0.643599
211.187  20.0256  494.973  0.742723  0.21232  0.635045
212.323  24.0278  492.981  0.912838  -0.263223  0.312156
212.033  23.0259  492.984  0.910292  -0.268353  0.315208
208.399  15.7692  494.993  0.323016  -0.852251  -0.411497
207.414  15.4177  494.975  0.309529  -0.855342  -0.415429
207.422  15.9169  493.964  0.311943  -0.85162  -0.42123
212.429  20.0292  492.979  0.920141  -0.207248  0.332249
212.601  21.0255  492.981  0.863006  0.0519296  0.502517
212.042  20.0223  493.977  0.849366  0.028116  0.527055
100.015  97.5583  485.788  0.829464  0.399571  -0.390297
209.413  18.3018  490.974  0.326125  -0.828992  -0.454329
209.424  19.418  488.962  0.35059  -0.822398  -0.448049
210.402  20.3488  487.99  0.338595  -0.824674  -0.453064
210.412  19.8156  488.977  0.336582  -0.824357  -0.455134
209.394  16.2149  494.99  0.454634  -0.834126  -0.312318
209.396  16.6403  494  0.343222  -0.840842  -0.418549
186.032  94.0278  563.981  -0.735969  -0.0526374  -0.674966
153.404  26.9471  459.964  -0.219143  -0.685655  -0.694157
154.408  26.6495  459.979  -0.160726  -0.730511  -0.663718
152.425  26.0979  461.041  -0.200733  -0.746349  -0.634562
156.671  24.8526  462.659  -0.0723254  -0.897753  -0.43452
154.407  28.5329  457.974  -0.238791  -0.707371  -0.665286
153.408  27.9352  458.977  -0.253994  -0.690634  -0.677135
153.405  29.016  457.858  -0.273349  -0.697973  -0.661902
154.466  25.5159  461.76  0.0165035  -0.917599  -0.397165
154.47  26.087  460.681  -0.0337297  -0.842165  -0.538164
152.523  25.0144  463.8  0.0453683  -0.998888  -0.0128026
98.3988  31.132  468.941  -0.203511  -0.692802  -0.691815
97.3919  34.0952  465.939  -0.249537  -0.743084  -0.620932
98.3885  32.9141  466.938  -0.277509  -0.735659  -0.617895
153.876  25.5219  461.634  -7.93847e-005  -0.898223  -0.439541
153.481  25.2843  462.262  -0.0214251  -0.951459  -0.30703
104.41  28.2949  469.987  -0.19899  -0.736422  -0.646595
102.434  29.6929  469.042  -0.267044  -0.750898  -0.60402
101.41  30.938  467.968  -0.212797  -0.73592  -0.642759
207.04  14.7989  500.977  0.650633  -0.0278727  0.758881
153.608  25.1015  463.115  -0.0117032  -0.98867  -0.149651
100.409  28.5239  470.981  -0.449529  -0.667181  -0.593964
99.4048  28.3529  471.974  -0.241328  -0.674453  -0.697763
99.3777  28.9819  471.186  -0.358534  -0.73879  -0.570651
153.594  25.9123  460.981  -0.103202  -0.816133  -0.568574
99.8851  83.6384  470.6  0.354467  0.496375  -0.792442
95.3931  32.218  468.923  -0.215792  -0.742723  -0.633875
209.416  18.8543  489.972  0.335214  -0.824422  -0.456026
208.419  17.9016  490.97  0.341625  -0.826441  -0.447535
97.4217  31.0702  469.224  -0.18351  -0.622382  -0.760898
97.411  30.1832  470.003  -0.187234  -0.552038  -0.812526
209.426  17.7693  491.956  0.318754  -0.830499  -0.456801
209.424  17.2134  492.96  0.32141  -0.831147  -0.453751
210.391  18.6644  491.007  0.357766  -0.817733  -0.450906
210.396  18.1096  492.001  0.346137  -0.821306  -0.453481
96.4089  31.0278  469.506  -0.155843  -0.573041  -0.804572
95.4089  32.0278  469.164  -0.242761  -0.726848  -0.642463
96.3971  31.7848  468.94  -0.262872  -0.680011  -0.684459
212.393  20.1002  490.008  0.400657  -0.81658  -0.415537
212.406  20.648  488.986  0.384538  -0.815081  -0.433328
213.387  22.1928  487.001  0.420938  -0.799075  -0.42929
208.424  18.4408  489.963  0.36248  -0.82245  -0.438387
207.386  18.4731  489.01  0.325835  -0.824988  -0.461764
208.416  18.9695  488.973  0.369296  -0.818199  -0.440647
211.389  19.0303  495.015  0.844989  0.0108456  0.534674
211.402  20.2063  488.99  0.338534  -0.825971  -0.450741
211.408  20.7611  487.983  0.338583  -0.823201  -0.455742
212.405  19.6432  490.991  0.484707  -0.794595  -0.36562
213.394  21.6743  487.991  0.473003  -0.792274  -0.385447
213.425  21.248  488.96  0.569097  -0.764658  -0.302367
212.148  18.9991  492.986  0.897063  -0.410631  0.163278
212.765  19.9961  491.96  0.930895  -0.244918  0.271016
211.162  18.0236  494.989  0.904961  -0.245115  0.347799
211.824  19.0384  493.965  0.91093  -0.232441  0.340849
211.41  19.6721  489.98  0.356032  -0.821698  -0.445032
212.396  21.1705  487.997  0.367175  -0.816627  -0.445312
210.699  17.0101  494.976  0.680107  -0.72962  -0.0714783
209.372  15.8894  495.982  0.561002  -0.811806  -0.16201
210.507  17.0406  495.982  0.884424  -0.351662  0.306802
211.526  18.041  494.014  0.877978  -0.453303  0.153856
213.281  21.0345  490.975  0.943224  -0.232165  0.237545
213.76  22.03  489.98  0.950954  -0.172473  0.256787
212.994  21.035  491.967  0.933941  -0.149555  0.324635
152.409  47.0278  439.581  0.0659975  0.570918  0.81835
99.7702  95.0172  486.99  0.841272  -0.415471  0.345897
100.195  95.0409  485.972  0.919614  -0.317852  0.230826
145.929  54.0232  432.983  0.906458  0.419709  -0.0466724
211.76  21.0211  493.962  0.742011  0.231531  0.629137
99.3378  98.6868  485.834  0.655794  0.492801  -0.571911
99.55  97.712  485.182  0.682294  0.522799  -0.511034
99.3309  96.3928  483.573  0.43869  0.608076  -0.66166
213.999  22.0452  487.988  0.71437  -0.666371  -0.213599
214.422  23.0222  486.98  0.85445  -0.502573  -0.131666
214.862  24.0357  485.986  0.966819  -0.24717  0.0645584
213.478  23.0223  490.973  0.856722  0.208471  0.471771
213.46  22.028  490.974  0.942678  -0.0650906  0.327294
207.462  15.6378  500.647  0.544044  0.240837  0.80375
170.404  29.2744  460.004  0.131571  -0.816015  -0.562857
169.402  28.4343  460.998  0.182311  -0.824214  -0.536129
168.407  28.2477  460.996  0.134939  -0.800954  -0.583322
101.409  29.011  475.981  0.276031  0.813536  0.511827
102.409  28.8853  475.981  0.266383  0.850997  0.452597
156.743  26.2135  460.393  -0.011751  -0.83672  -0.547505
158.406  26.0215  460.987  0.235694  -0.841806  -0.485604
98.9159  55.0209  448.982  -0.887934  0.280462  -0.364574
211.411  19.1458  490.978  0.389322  -0.819236  -0.421047
156.411  26.5182  459.945  -0.0141434  -0.818165  -0.574809
160.412  25.0968  463.975  0.244482  -0.842924  -0.479278
159.419  24.8071  463.969  0.272996  -0.852284  -0.44619
99.2151  56.0282  448.981  -0.896437  0.234953  -0.375763
208.421  30.3051  476.964  -0.363246  0.804879  0.469278
207.397  28.7433  478.998  -0.282426  0.851666  0.441476
208.412  28.5865  479.977  -0.302215  0.84004  0.450554
207.397  29.2782  478.001  -0.283637  0.83952  0.463418
95.6944  77.023  471.987  -0.981999  0.111165  -0.152712
206.534  28.5072  469.814  0.478563  -0.877074  -0.0414567
206.458  28.4617  471.027  0.479117  -0.877529  0.0197565
205.829  28.0132  470.206  0.597168  -0.80191  -0.0181742
101.415  29.3223  469.976  -0.217922  -0.698205  -0.681923
95.604  76.0278  471.981  -0.980335  0.1188  -0.157576
98.4287  30.0065  470.223  -0.0950487  -0.756711  -0.646804
99.4183  29.8858  469.992  -0.258983  -0.711824  -0.652866
99.4089  28.0278  472.196  -0.259691  -0.54756  -0.795449
97.4089  30.0278  470.079  -0.0214881  -0.647017  -0.762172
98.4164  29.3275  470.945  0.0346701  -0.734988  -0.677193
95.7312  75.0278  469.981  -0.945599  0.213091  -0.245836
96.4228  33.4709  467.016  -0.250992  -0.734934  -0.62998
95.5386  77.0311  472.977  -0.937594  0.113367  -0.328733
95.4089  77.0278  473.175  -0.830613  0.129277  -0.541636
98.4089  29.0278  471.275  0.0773537  -0.682538  -0.726745
99.4058  30.7825  468.973  -0.244373  -0.744365  -0.621452
100.378  29.9494  469.711  -0.21446  -0.698952  -0.682256
102.061  58.0278  443.981  -0.812205  0.583187  -0.0146972
101.969  57.0278  442.981  -0.849429  0.290067  -0.440831
103.409  58.0278  441.213  -0.740795  0.233383  -0.629885
102.623  57.0362  441.962  -0.819031  0.256773  -0.513084
154.635  26.4933  464.547  -0.112537  0.638578  0.761284
209.416  19.95  487.972  0.353249  -0.821472  -0.447659
154.33  26.8977  464.142  -0.0523984  0.686888  0.724872
155.408  29.0183  461.999  0.0011273  0.729506  0.683974
210.414  19.2577  489.974  0.33762  -0.820336  -0.461586
207.397  17.9561  489.993  0.345335  -0.833424  -0.431449
211.418  21.3331  486.969  0.331448  -0.821376  -0.464203
212.394  22.2642  486.004  0.344811  -0.815581  -0.464686
152.421  28.7647  463.007  0.279216  0.716811  0.638922
158.405  27.3123  458.996  0.118086  -0.802986  -0.584183
100.367  99.8277  488.809  0.959506  0.187881  -0.209879
130.408  57.0252  427.955  -0.162895  -0.670988  -0.723353
95.8381  73.0278  467.981  -0.727311  0.468949  -0.501104
211.446  30.9948  479.122  -0.618077  0.555482  0.556255
211.359  29.9876  480.021  -0.537198  0.67279  0.508697
118.397  54.011  437.161  -0.261443  -0.347475  -0.900505
118.38  53.0757  436.989  -0.191408  0.430846  -0.881893
214.801  30.0105  478.982  0.902885  0.428787  -0.0306635
119.428  54.9929  435.99  -0.534402  -0.582193  -0.612753
117.408  56.0262  435.764  -0.257252  -0.646117  -0.718578
117.424  56.8495  434.99  -0.289703  -0.665759  -0.687632
115.422  54.045  438.003  -0.305306  -0.250862  -0.918617
103.414  56.0158  441.078  -0.559187  -0.275219  -0.782026
134.447  56.0278  428.069  0.0248138  -0.452231  -0.891555
207.395  29.8431  477.004  -0.284466  0.830782  0.478415
208.431  29.1517  478.951  -0.324652  0.826133  0.460549
208.403  29.6919  477.989  -0.356954  0.804568  0.47461
158.114  12.9481  488.717  -0.762361  0.146035  0.63046
158.842  11.6184  489.842  -0.831797  -0.0550563  0.552343
157.883  14.2989  487.9  -0.462722  0.434988  0.772446
210.398  23.2627  482.997  0.332419  -0.807478  -0.487316
211.42  23.1002  483.965  0.329883  -0.807566  -0.488891
209.427  22.8887  482.954  0.332031  -0.808904  -0.485211
211.423  21.906  485.962  0.326999  -0.817542  -0.474023
211.406  22.4709  484.985  0.326707  -0.811016  -0.485299
160.409  29.0278  458.394  0.229322  -0.404173  -0.885469
161.409  29.0278  458.627  0.134399  -0.314446  -0.939713
161.39  28.0996  459.072  0.27357  -0.627463  -0.729006
105.408  52.0261  443.433  -0.278704  -0.633247  -0.722026
160.421  27.8239  458.927  0.258545  -0.806027  -0.532424
159.389  27.9754  458.431  0.313525  -0.356834  -0.879984
156.41  29.0292  457.024  0.0162098  -0.640914  -0.767442
106.409  31.6533  470.981  0.273542  0.730057  0.626253
157.408  27.2268  458.991  0.0302608  -0.794394  -0.606648
157.41  28.0385  458.009  0.0044813  -0.738783  -0.673928
159.401  26.8779  459.996  0.237105  -0.832941  -0.499991
158.405  25.4629  461.987  0.239611  -0.859386  -0.451709
213.403  22.7537  485.988  0.412157  -0.798729  -0.438359
212.408  21.7333  486.983  0.385089  -0.808897  -0.444289
160.418  25.6475  462.968  0.28593  -0.850707  -0.441068
159.407  25.2869  462.984  0.300033  -0.852513  -0.428021
163.409  27.6049  460.983  0.145884  -0.805238  -0.574725
164.409  27.7731  460.984  0.120134  -0.78724  -0.604831
159.405  27.516  458.999  0.18752  -0.802567  -0.566323
98.0616  120.011  542.989  -0.933225  0.32134  -0.160722
97.8496  120.028  543.981  -0.922631  0.328202  -0.202572
98.3066  121.028  543.981  -0.961989  0.207887  -0.177088
109.408  56.0217  443.024  0.205386  0.683431  0.700528
160.397  27.1924  459.999  0.285994  -0.835324  -0.469511
213.994  22.0406  488.989  0.949491  -0.273746  0.153394
98.2644  120.031  541.979  -0.917065  0.362475  -0.166145
97.8752  119.028  541.981  -0.94624  0.29734  -0.127351
161.402  27.0088  460.993  0.298832  -0.842382  -0.448433
162.415  27.3761  460.983  0.258131  -0.833953  -0.48774
161.415  26.5021  461.971  0.28667  -0.84717  -0.447351
214.432  23.3378  485.979  0.482104  -0.77356  -0.411316
107.425  57.0403  442.997  0.350154  0.417536  0.838485
98.1131  122.027  542.978  -0.999582  0.0169682  -0.0234121
98.1477  122.077  541.979  -0.993674  0.0225433  -0.110019
98.4663  121.016  542.983  -0.975483  -0.200482  -0.0907705
98.4717  122.03  539.982  -0.98443  -0.066418  -0.162747
98.9437  123.035  539.979  -0.835613  0.515931  -0.188588
98.7058  122.033  538.975  -0.954254  0.225258  -0.196619
196.409  88.0278  550.51  -0.848695  0.034907  -0.52773
213.835  23.0272  489.978  0.941619  -0.00502745  0.336642
214.191  23.0343  488.978  0.959848  -0.126854  0.250199
131.414  52.4046  440.002  0.15528  0.734092  0.661058
132.414  52.1997  440.01  0.128825  0.716366  0.685729
131.41  53.355  438.986  0.124918  0.714297  0.688604
118.418  52.0985  436.04  -0.140696  0.330389  -0.933299
212.432  19.4613  491.98  0.774949  -0.628187  -0.069525
213.494  20.9937  489.961  0.840714  -0.540547  -0.0317515
160.404  26.6596  460.988  0.293116  -0.846  -0.445384
158.989  25.7079  468.116  -0.414862  0.785509  0.459201
119.318  53.9208  436.923  -0.464515  -0.194637  -0.863911
98.2877  122.049  540.984  -0.98406  0.0735151  -0.161931
100.411  124.455  541.981  0.091738  0.991619  -0.0909751
100.437  124.366  540.989  0.177342  0.982521  -0.0565958
98.7801  121.025  539.981  -0.993729  -0.060374  -0.0941185
98.6783  121.011  540.98  -0.987886  -0.097009  -0.121124
105.408  56.0268  444.483  0.380702  0.514961  0.768037
104.412  56.0323  444.991  0.404921  0.543995  0.734921
106.406  53.0215  442.175  -0.278009  -0.63069  -0.724528
151.419  26.463  461.008  -0.253899  -0.736424  -0.627068
151.42  27.0641  460.439  -0.211388  -0.664875  -0.716419
208.409  20.6919  485.984  0.260024  -0.833299  -0.487852
207.73  21.0405  484.989  0.283655  -0.830329  -0.479681
208.401  21.2684  484.995  0.300762  -0.817522  -0.491122
206.402  17.6327  489.994  0.250072  -0.853225  -0.457681
206.409  18.1758  488.981  0.257761  -0.836316  -0.483874
105.415  54.04  441.693  -0.293336  -0.616501  -0.730671
104.407  53.0241  442.959  -0.291965  -0.620983  -0.727418
144.181  57.5158  430.873  0.72076  0.687034  0.0921374
141.882  59.0239  431.425  0.402383  0.902795  0.151818
104.414  54.0385  442.103  -0.305627  -0.605222  -0.73505
93.4089  35.4712  465.981  -0.0545592  -0.655583  -0.75315
162.412  26.0762  462.956  0.0820908  -0.814249  -0.574682
162.408  25.3386  463.986  0.0596544  -0.814036  -0.577743
160.416  26.1574  461.97  0.295833  -0.849711  -0.436433
201.263  17.0278  495.981  -0.440299  0.857557  0.265956
162.413  26.7574  461.968  0.127169  -0.821031  -0.556539
215.147  26.0277  484.978  0.985964  -0.00397759  0.166909
214.96  25.0283  485.98  0.98404  -0.0284502  0.175659
215.13  25.028  484.98  0.987131  -0.0661659  0.145585
210.411  20.9163  486.978  0.339134  -0.819693  -0.461618
209.414  20.4964  486.975  0.344619  -0.81742  -0.461587
211.411  23.6913  482.978  0.329795  -0.808754  -0.486982
212.419  23.5059  483.967  0.334187  -0.807419  -0.486203
196.413  12.5268  501.967  -0.144833  0.842038  0.519611
146.424  42.316  449.013  0.229623  0.817072  0.528834
145.409  42.6133  448.981  0.218287  0.824639  0.521843
146.409  41.7485  449.981  0.227437  0.800018  0.555197
110.402  59.0105  435.91  -0.40973  0.132598  -0.902518
111.402  59.009  435.494  -0.371126  -0.12168  -0.920576
214.515  24.0286  487.98  0.967068  -0.0300161  0.252743
214.723  24.0312  486.975  0.98058  -0.0921206  0.173139
214.776  25.0275  486.981  0.964112  0.040414  0.262401
148.398  39.9763  451.66  0.152294  0.752531  0.640705
163.407  25.4099  463.994  0.0696901  -0.810353  -0.581783
145.409  44.7457  445.98  0.141853  0.788422  0.598555
144.407  44.9518  445.971  0.164266  0.807554  0.566457
145.401  42.992  448.405  0.199197  0.80775  0.554852
98.6619  80.9005  467.793  -0.265818  0.676297  -0.686996
106.409  52.0278  447.78  0.471766  0.608456  0.638136
208.406  19.4969  487.986  0.357788  -0.817417  -0.451461
163.407  30.5425  463.007  -0.0375931  0.77975  0.624961
164.407  30.5978  463.006  -0.0468546  0.776084  0.628886
214.522  26.0114  486.967  0.74925  0.462465  0.474079
214.964  26.0234  485.972  0.953849  0.138544  0.266415
133.409  22.5615  475.981  -0.20683  0.97823  -0.0169513
214.394  26.1014  481.166  0.476329  -0.706091  -0.523972
214.394  25.4518  482.004  0.406993  -0.772848  -0.486891
213.411  26.3169  479.983  0.396076  -0.762141  -0.512118
106.41  54.03  441.306  -0.285154  -0.619875  -0.731055
106.412  55.0337  440.463  -0.293434  -0.610275  -0.73584
103.409  54.0276  442.535  -0.313351  -0.598756  -0.737091
127.409  23.0278  475.662  0.0906329  0.973388  0.210479
207.403  17.4536  490.988  0.322935  -0.838811  -0.438304
210.413  22.078  484.975  0.328948  -0.810838  -0.484082
210.412  22.6824  483.977  0.328043  -0.809676  -0.486635
209.398  22.2592  483.998  0.312379  -0.80628  -0.502326
208.409  22.0278  483.823  0.236233  -0.78918  -0.566912
208.409  22.4504  482.981  0.30182  -0.822872  -0.481441
157.487  13.9653  487.726  -0.726071  0.190827  0.66061
214.398  23.862  484.983  0.505863  -0.762229  -0.403868
215.112  25.0005  483.959  0.721089  -0.630878  -0.286396
101.409  26.7378  472.981  -0.200284  -0.782726  -0.589259
122.409  59.0278  434.411  0.422451  0.694214  -0.582754
140.407  56.0126  434.995  0.0440177  0.669607  0.74141
143.18  58.3369  431.188  0.575089  0.810645  0.110125
107.408  55.6644  443.981  0.238322  0.662549  0.710093
140.409  55.042  435.884  0.0137431  0.685251  0.728177
109.409  52.0278  446.535  0.269567  0.517692  0.81199
109.396  53.0003  445.919  0.258705  0.54067  0.800467
107.409  52.0278  447.326  0.257788  0.62803  0.73425
107.404  53.0112  446.522  0.212108  0.640769  0.737852
139.41  55.0373  435.959  0.0778896  0.665752  0.742097
139.41  54.0579  436.843  0.0333729  0.679229  0.733167
108.41  53.0298  441.423  -0.25712  -0.640069  -0.724017
214.411  23.0233  487.978  0.970237  -0.15702  0.184351
136.412  58.0408  433.701  0.13146  0.609308  0.781961
137.411  57.038  434.415  0.123553  0.664334  0.737153
140.408  53.9906  436.893  -0.00487354  0.694176  0.719789
139.405  55.9978  435.09  0.0740496  0.66969  0.73894
