ply
format ascii 1.0
comment Exported by Geomagic
element vertex 681
property float x
property float y
property float z
property float nx
property float ny
property float nz
property uchar red
property uchar green
property uchar blue
end_header
-0.128451 -0.041328 -0.026827 0.459211 0.872003 0.169518 159 164 147
-0.126587 -0.043124 -0.023412 0.384533 0.878979 0.282009 186 185 178
-0.132697 -0.041485 -0.030128 -0.429217 -0.890702 -0.149740 132 133 122
-0.131966 -0.042003 -0.028984 -0.424611 -0.889878 -0.166802 132 136 128
-0.125025 -0.045593 -0.019551 -0.486276 0.291599 0.823715 200 213 205
-0.126233 -0.045728 -0.020395 -0.673391 -0.135879 0.726693 157 159 148
-0.132888 -0.041340 -0.030456 -0.381171 -0.910889 -0.158081 131 130 125
-0.125821 -0.045727 -0.020075 -0.573803 -0.138113 0.807265 185 186 165
-0.124855 -0.045188 -0.019942 -0.040681 0.784028 0.619391 225 211 214
-0.125467 -0.044310 -0.021384 0.275523 0.886657 0.371383 202 205 200
-0.124965 -0.045976 -0.019350 -0.637036 0.247099 0.730155 187 206 187
-0.125058 -0.044641 -0.020894 0.229068 0.884655 0.406094 192 197 198
-0.124535 -0.045928 -0.019141 -0.349148 0.544667 0.762517 205 215 199
-0.124446 -0.045558 -0.019462 -0.128041 0.734158 0.666796 211 221 204
-0.124684 -0.044968 -0.020386 0.185829 0.883804 0.429369 202 198 202
-0.124050 -0.045894 -0.018978 -0.160415 0.738665 0.654707 214 215 214
-0.124564 -0.046369 -0.018894 -0.539060 0.330803 0.774586 190 214 185
-0.124128 -0.046300 -0.018681 -0.384905 0.511392 0.768328 226 210 220
-0.124282 -0.045293 -0.019889 0.188699 0.893051 0.408476 198 205 200
-0.125552 -0.043874 -0.022463 0.356584 0.883143 0.304804 184 188 179
-0.123917 -0.045609 -0.019362 0.087284 0.853761 0.513297 209 209 206
-0.131222 -0.042477 -0.028637 -0.404462 -0.875798 -0.263418 127 131 124
-0.130704 -0.043063 -0.027598 -0.533420 -0.831401 -0.155673 134 134 125
-0.130099 -0.043606 -0.026536 -0.502034 -0.850193 -0.158537 133 133 124
-0.134670 -0.040042 -0.034041 -0.169288 -0.982211 -0.081259 82 94 82
-0.133941 -0.040358 -0.033115 -0.310077 -0.924050 -0.223570 112 124 117
-0.124920 -0.046555 -0.019217 -0.745204 -0.177352 0.642820 167 167 159
-0.128783 -0.044720 -0.024305 -0.782638 -0.540770 0.308294 139 141 128
-0.132240 -0.041697 -0.030319 -0.438102 -0.888095 -0.139117 122 128 120
-0.129672 -0.043892 -0.025909 -0.654572 -0.755697 0.021392 131 136 127
-0.133263 -0.040905 -0.031994 -0.356221 -0.905977 -0.228715 122 123 116
-0.123639 -0.046246 -0.018507 -0.309542 0.578523 0.754649 255 243 245
-0.125191 -0.044196 -0.021944 0.342367 0.891269 0.297365 186 188 179
-0.124928 -0.044469 -0.021442 0.305884 0.892962 0.330233 188 190 186
-0.131885 -0.041929 -0.029795 -0.335422 -0.930719 -0.145784 123 128 120
-0.128132 -0.044932 -0.023565 -0.823964 -0.514008 0.238495 140 141 134
-0.130347 -0.043355 -0.027039 -0.508569 -0.847917 -0.149646 132 133 126
-0.128810 -0.040874 -0.028410 0.631458 0.774274 -0.041947 139 145 132
-0.127486 -0.045474 -0.022469 -0.794939 -0.515208 0.320367 143 146 133
-0.130191 -0.039819 -0.030651 0.603748 0.797172 0.002384 135 138 125
-0.126792 -0.045907 -0.021447 -0.748064 -0.590570 0.302701 157 158 139
-0.129857 -0.040074 -0.030111 0.626064 0.779109 -0.032138 139 140 129
-0.129507 -0.040343 -0.029542 0.634482 0.772268 -0.032158 139 143 131
-0.131219 -0.039040 -0.032315 0.585580 0.810512 -0.012919 132 133 124
-0.132672 -0.038366 -0.034212 0.521486 0.836753 -0.167026 127 127 123
-0.132299 -0.038493 -0.033774 0.465455 0.864623 -0.189150 127 130 123
-0.128488 -0.041135 -0.027876 0.571872 0.816532 0.078983 143 147 129
-0.131914 -0.038568 -0.033381 0.417166 0.902528 -0.106847 119 123 114
-0.131514 -0.038735 -0.032878 0.456268 0.888609 0.046829 108 112 99
-0.134997 -0.039944 -0.034438 -0.326618 -0.942522 -0.070516 27 50 49
-0.128542 -0.044815 -0.024030 -0.680431 -0.600550 0.419944 138 139 132
-0.129229 -0.044327 -0.025107 -0.783757 -0.600266 0.159391 133 137 127
-0.130878 -0.039249 -0.031818 0.619579 0.783892 -0.040449 127 130 118
-0.127140 -0.045699 -0.021955 -0.769661 -0.577979 0.271222 153 152 136
-0.126427 -0.046098 -0.020952 -0.744960 -0.558370 0.365047 162 160 148
-0.133600 -0.040610 -0.032599 -0.331325 -0.910925 -0.245844 120 124 118
-0.126294 -0.043064 -0.024054 0.431695 0.868803 0.242531 169 174 162
-0.128157 -0.041407 -0.027324 0.511298 0.849963 0.127034 144 149 129
-0.127242 -0.042249 -0.025688 0.509635 0.850652 0.129089 157 160 147
-0.127544 -0.041975 -0.026225 0.544397 0.828626 0.130424 157 159 140
-0.132885 -0.041182 -0.031415 -0.380538 -0.909860 -0.165367 124 125 123
-0.132579 -0.041405 -0.030933 -0.432679 -0.886616 -0.163406 125 128 119
-0.131542 -0.042139 -0.029313 -0.385974 -0.897178 -0.214698 128 132 126
-0.134287 -0.040130 -0.033673 -0.239981 -0.951450 -0.192749 109 115 97
-0.125677 -0.046364 -0.020068 -0.713279 -0.134885 0.687778 157 157 144
-0.129880 -0.043766 -0.026240 -0.610872 -0.789223 0.062943 134 135 128
-0.129188 -0.040582 -0.029043 0.651815 0.757366 -0.039171 142 142 129
-0.125300 -0.046475 -0.019646 -0.732157 -0.378371 0.566376 165 163 157
-0.130898 -0.042808 -0.028082 -0.460760 -0.860690 -0.216592 128 133 123
-0.126054 -0.046257 -0.020490 -0.742827 -0.483829 0.462728 158 160 145
-0.126907 -0.042525 -0.025132 0.480792 0.867208 0.129577 157 166 154
-0.126016 -0.043356 -0.023529 0.430123 0.867943 0.248332 172 175 165
-0.130506 -0.039556 -0.031203 0.594294 0.802674 0.050301 130 134 115
-0.126565 -0.042793 -0.024573 0.422797 0.885341 0.193427 169 174 166
-0.127828 -0.041707 -0.026752 0.536716 0.833301 0.132456 148 152 132
-0.125723 -0.043639 -0.022997 0.381541 0.894159 0.234324 176 180 169
-0.127982 -0.045217 -0.023172 -0.881949 -0.423745 0.206411 144 143 132
-0.129403 -0.044203 -0.025429 -0.697594 -0.714526 -0.053059 133 136 126
-0.123700 -0.046683 -0.018219 -0.434520 0.433962 0.789221 232 206 221
-0.124152 -0.046819 -0.018448 -0.657018 0.031238 0.753228 211 201 197
-0.123496 -0.045933 -0.018887 0.086970 0.865022 0.494138 224 218 218
-0.124443 -0.044819 -0.020908 0.305215 0.900851 0.308727 185 186 186
-0.123220 -0.046638 -0.018049 -0.316195 0.564438 0.762516 250 239 255
-0.123131 -0.046283 -0.018385 -0.000534 0.825984 0.563692 219 226 244
-0.124039 -0.045126 -0.020404 0.272904 0.900608 0.338273 194 190 188
-0.134522 -0.039996 -0.034371 -0.048788 -0.983056 -0.176692 51 44 39
-0.123267 -0.047058 -0.017766 -0.433531 0.458060 0.776036 186 213 221
-0.130389 -0.043187 -0.027676 -0.371629 -0.873994 -0.313090 128 128 122
-0.123687 -0.045427 -0.019869 0.234156 0.903339 0.359373 191 198 195
-0.123677 -0.047171 -0.018017 -0.648608 0.149475 0.746300 195 196 184
-0.122737 -0.046620 -0.017881 -0.177891 0.707035 0.684439 226 231 241
-0.122796 -0.047011 -0.017591 -0.338980 0.579584 0.741063 235 220 230
-0.123304 -0.045735 -0.019355 0.219771 0.894228 0.389944 205 206 197
-0.122842 -0.047408 -0.017309 -0.492092 0.392569 0.777005 219 203 214
-0.131626 -0.041882 -0.030322 -0.274766 -0.945036 -0.177232 117 125 121
-0.133996 -0.040018 -0.034254 -0.209470 -0.926714 -0.311966 64 60 65
-0.122907 -0.046049 -0.018852 0.237069 0.907312 0.347251 193 204 199
-0.122307 -0.046958 -0.017409 -0.130908 0.765606 0.629850 230 241 248
-0.123252 -0.047545 -0.017574 -0.674230 -0.068343 0.735352 176 183 165
-0.122576 -0.046348 -0.018305 0.124734 0.881114 0.456159 204 201 209
-0.131936 -0.041764 -0.030798 -0.315373 -0.932301 -0.177069 115 121 117
-0.122390 -0.047360 -0.017110 -0.379114 0.567490 0.730909 231 228 228
-0.128961 -0.044544 -0.025448 -0.581274 -0.786684 -0.207963 130 133 127
-0.129557 -0.043859 -0.026669 -0.412685 -0.874746 -0.253992 127 130 120
-0.128583 -0.045029 -0.024641 -0.621485 -0.781321 -0.057395 132 134 128
-0.128330 -0.045212 -0.024245 -0.578448 -0.809243 0.102579 133 135 128
-0.125120 -0.046987 -0.019761 -0.761221 -0.412745 0.500184 164 164 151
-0.129251 -0.044162 -0.026117 -0.528549 -0.824484 -0.202145 128 131 122
-0.125491 -0.046841 -0.020225 -0.739816 -0.529091 0.415616 161 157 140
-0.127631 -0.045755 -0.023123 -0.738287 -0.625448 0.252484 141 138 128
-0.129807 -0.043603 -0.027172 -0.395858 -0.879444 -0.264339 122 127 121
-0.127860 -0.045592 -0.023484 -0.734644 -0.677532 -0.035340 141 136 128
-0.126537 -0.042699 -0.025463 0.596290 0.801973 0.035766 148 153 139
-0.125847 -0.046693 -0.020680 -0.748494 -0.542478 0.381411 156 155 143
-0.127120 -0.042237 -0.026430 0.559347 0.823355 0.096003 146 146 130
-0.123995 -0.047403 -0.018423 -0.808478 -0.288003 0.513243 174 172 159
-0.127198 -0.042160 -0.026576 0.564273 0.817571 0.114780 141 142 123
-0.124348 -0.047232 -0.018892 -0.743317 -0.328965 0.582461 166 169 152
-0.125951 -0.043001 -0.024670 0.504407 0.859932 0.078041 156 153 135
-0.125759 -0.043305 -0.024193 0.424451 0.861644 0.278227 146 151 140
-0.128907 -0.040851 -0.029351 0.670136 0.741405 -0.035166 134 134 122
-0.129885 -0.040113 -0.030928 0.634151 0.771641 -0.049220 128 126 117
-0.127871 -0.041592 -0.027724 0.593706 0.804657 0.006341 124 131 117
-0.130564 -0.039579 -0.032045 0.670303 0.730036 -0.133198 115 125 111
-0.128101 -0.041427 -0.028086 0.608157 0.793543 0.020867 127 132 114
-0.127533 -0.041867 -0.027158 0.583833 0.810077 0.054003 132 135 119
-0.128570 -0.041134 -0.028778 0.655807 0.749693 -0.088755 135 138 130
-0.129579 -0.040280 -0.030502 0.580614 0.814014 -0.016401 121 126 117
-0.128213 -0.041329 -0.028280 0.614341 0.788692 -0.023423 129 134 119
-0.129169 -0.040638 -0.029790 0.644560 0.764192 -0.023512 128 131 122
-0.125164 -0.043797 -0.023188 0.366486 0.894561 0.255830 166 169 153
-0.130267 -0.039777 -0.031595 0.668408 0.741846 -0.053814 120 123 111
-0.125513 -0.043568 -0.023714 0.402030 0.890394 0.213472 158 161 147
-0.126169 -0.042910 -0.024946 0.626287 0.757928 -0.182512 152 158 144
-0.126197 -0.046510 -0.021163 -0.756364 -0.578767 0.304864 152 155 143
-0.126869 -0.042440 -0.026014 0.559240 0.826940 0.058481 145 144 129
-0.130314 -0.043029 -0.028201 -0.409573 -0.873735 -0.262368 120 127 123
-0.123667 -0.045247 -0.020440 0.359524 0.897227 0.256369 187 185 182
-0.123958 -0.044971 -0.020970 0.354201 0.894087 0.274135 180 180 176
-0.132615 -0.041144 -0.032071 -0.395223 -0.871816 -0.289370 116 118 110
-0.127281 -0.045949 -0.022646 -0.710429 -0.654073 0.259769 142 140 132
-0.128777 -0.044760 -0.025126 -0.546882 -0.807515 -0.220997 127 135 129
-0.124547 -0.044423 -0.022035 0.406220 0.889117 0.210847 177 179 173
-0.126572 -0.046306 -0.021701 -0.724199 -0.621609 0.298560 149 149 141
-0.124833 -0.044149 -0.022566 0.414888 0.868958 0.269776 169 172 160
-0.126907 -0.046151 -0.022142 -0.730874 -0.632574 0.256268 140 145 128
-0.124718 -0.047139 -0.019315 -0.748944 -0.342930 0.566993 173 161 151
-0.130838 -0.042475 -0.029232 -0.433876 -0.871459 -0.228718 120 127 117
-0.123619 -0.047566 -0.017970 -0.750720 -0.186821 0.633655 173 172 163
-0.124230 -0.044705 -0.021493 0.345536 0.896343 0.277803 172 180 174
-0.130561 -0.042761 -0.028708 -0.439513 -0.865163 -0.241498 122 127 119
-0.131135 -0.042202 -0.029768 -0.397512 -0.893748 -0.207845 118 127 119
-0.133877 -0.040072 -0.034256 -0.330251 -0.890868 -0.311912 44 51 51
-0.132873 -0.040879 -0.032587 -0.341967 -0.900227 -0.269537 112 115 108
-0.133268 -0.040543 -0.033264 -0.310432 -0.913534 -0.262847 106 112 99
-0.133609 -0.040279 -0.033820 -0.287066 -0.926605 -0.242892 77 90 74
-0.127947 -0.045380 -0.023848 -0.766078 -0.629658 0.129051 137 137 129
-0.121922 -0.047288 -0.016926 -0.303821 0.621299 0.722274 217 220 211
-0.129046 -0.044382 -0.025810 -0.582240 -0.789153 -0.195536 131 131 122
-0.122171 -0.046677 -0.017811 0.052581 0.848379 0.526771 209 212 205
-0.121993 -0.047710 -0.016632 -0.432225 0.433156 0.790921 200 196 196
-0.132193 -0.041461 -0.031570 -0.371799 -0.900834 -0.224193 112 118 112
-0.122406 -0.047851 -0.016889 -0.585791 0.124080 0.800908 195 195 189
-0.121766 -0.047001 -0.017314 0.069009 0.879391 0.471074 217 217 209
-0.129803 -0.043403 -0.027699 -0.381118 -0.880038 -0.283340 120 125 118
-0.121546 -0.047710 -0.016440 -0.290479 0.550584 0.782612 206 205 204
-0.121435 -0.047314 -0.016770 -0.034262 0.823411 0.566410 209 221 208
-0.129394 -0.043749 -0.027218 -0.388582 -0.874412 -0.290531 121 124 120
-0.121001 -0.047637 -0.016308 -0.071072 0.687169 0.723013 206 213 214
-0.122624 -0.045949 -0.019424 0.317967 0.904005 0.285782 189 189 183
-0.122291 -0.046231 -0.018867 0.300738 0.915939 0.265731 187 191 184
-0.121505 -0.048145 -0.016218 -0.473482 0.280669 0.834889 195 190 185
-0.121946 -0.046508 -0.018317 0.267658 0.914320 0.303937 200 194 186
-0.121051 -0.048085 -0.016036 -0.339973 0.453027 0.824128 201 201 203
-0.121551 -0.046806 -0.017803 0.196288 0.901278 0.386224 195 198 189
-0.121904 -0.048311 -0.016512 -0.659772 -0.103231 0.744342 185 183 173
-0.133307 -0.040253 -0.034339 -0.309142 -0.915565 -0.257241 1 3 0
-0.125076 -0.047369 -0.020112 -0.669648 -0.728782 0.143001 149 155 142
-0.121208 -0.047101 -0.017261 0.180556 0.912703 0.366570 205 203 201
-0.126393 -0.046637 -0.021990 -0.693185 -0.706120 0.144533 143 142 132
-0.120859 -0.047370 -0.016711 0.272927 0.829882 0.486627 192 210 205
-0.126679 -0.046415 -0.022464 -0.656663 -0.749796 0.081229 139 140 131
-0.128009 -0.045296 -0.024732 -0.435152 -0.887837 -0.149624 122 127 119
-0.128611 -0.044668 -0.025887 -0.541978 -0.807463 -0.232948 123 123 117
-0.122290 -0.048322 -0.016878 -0.675235 -0.417217 0.608266 173 171 155
-0.127479 -0.045844 -0.023727 -0.561105 -0.803828 -0.197541 132 133 127
-0.125288 -0.047280 -0.020424 -0.637000 -0.720685 0.273575 146 150 138
-0.132291 -0.041076 -0.032696 -0.460463 -0.846135 -0.268383 91 113 93
-0.128328 -0.045008 -0.025312 -0.504601 -0.834716 -0.220515 124 124 117
-0.132007 -0.041359 -0.032168 -0.343439 -0.903600 -0.256043 105 109 105
-0.128786 -0.044404 -0.026328 -0.551741 -0.784268 -0.283736 121 122 116
-0.125962 -0.046932 -0.021354 -0.708067 -0.683643 0.176845 140 148 139
-0.130070 -0.042988 -0.028872 -0.454535 -0.867900 -0.200368 116 120 113
-0.131680 -0.041630 -0.031619 -0.326385 -0.919409 -0.219456 105 113 105
-0.132863 -0.040523 -0.033755 -0.293642 -0.920849 -0.256537 43 54 57
-0.124518 -0.044117 -0.023156 0.454632 0.842689 0.288418 138 142 129
-0.126094 -0.043063 -0.025555 0.646293 0.749946 0.141016 140 139 134
-0.126415 -0.042791 -0.026104 0.596655 0.802497 0.000890 131 132 121
-0.123654 -0.044916 -0.021608 0.404247 0.886524 0.225077 161 164 158
-0.123864 -0.044767 -0.021937 0.426359 0.891256 0.154537 158 167 157
-0.125908 -0.043367 -0.025081 0.752513 0.639539 -0.157208 145 147 137
-0.132568 -0.040801 -0.033221 -0.388540 -0.888014 -0.245906 127 148 130
-0.123371 -0.045199 -0.021079 0.409936 0.881933 0.232693 169 174 164
-0.126249 -0.042905 -0.025848 0.609745 0.791946 0.032126 124 127 114
-0.124340 -0.044384 -0.022729 0.464236 0.856695 0.224854 155 160 151
-0.130619 -0.042427 -0.029916 -0.471281 -0.854171 -0.219742 110 119 114
-0.130345 -0.042714 -0.029394 -0.489368 -0.849417 -0.197505 115 120 112
-0.122667 -0.048288 -0.017246 -0.652654 -0.431489 0.622784 164 168 157
-0.122729 -0.045748 -0.019986 0.405146 0.895316 0.185109 182 181 175
-0.123433 -0.048140 -0.018030 -0.692713 -0.579759 0.428985 169 171 157
-0.123787 -0.047947 -0.018526 -0.801856 -0.421674 0.423341 162 167 154
-0.123049 -0.045483 -0.020531 0.428920 0.881262 0.198505 178 179 170
-0.123068 -0.048236 -0.017637 -0.662247 -0.579185 0.475367 171 171 156
-0.128926 -0.044132 -0.026751 -0.497752 -0.816270 -0.293167 120 123 117
-0.130890 -0.042158 -0.030438 -0.403786 -0.890858 -0.208159 110 114 112
-0.124155 -0.047762 -0.019028 -0.747995 -0.489209 0.448529 153 161 150
-0.127012 -0.046211 -0.022996 -0.608426 -0.790737 0.067476 138 138 133
-0.129594 -0.043406 -0.028067 -0.408914 -0.885859 -0.219191 116 121 114
-0.127618 -0.045567 -0.024174 -0.519995 -0.837695 -0.166953 129 128 124
-0.131255 -0.041879 -0.031040 -0.323667 -0.929989 -0.174242 106 111 106
-0.125611 -0.047155 -0.020865 -0.666842 -0.711752 0.220748 146 147 138
-0.124534 -0.047712 -0.019404 -0.668145 -0.565001 0.484102 157 159 150
-0.129412 -0.043568 -0.027766 -0.405795 -0.878303 -0.252812 117 121 114
-0.124756 -0.047640 -0.019682 -0.680524 -0.710411 0.179455 152 156 147
-0.132247 -0.041103 -0.032707 -0.462871 -0.847434 -0.260011 91 113 93
-0.121044 -0.048538 -0.015815 -0.504800 0.248630 0.826656 188 193 188
-0.120596 -0.048505 -0.015607 -0.277101 0.595703 0.753891 203 205 198
-0.121422 -0.048751 -0.016130 -0.682945 -0.112395 0.721771 173 176 160
-0.120450 -0.048201 -0.016014 0.177936 0.815349 0.550949 204 205 205
-0.120127 -0.048478 -0.015468 -0.180074 0.842833 0.507156 202 207 204
-0.120957 -0.046970 -0.017797 0.303297 0.910504 0.281059 188 187 187
-0.119651 -0.048414 -0.015254 -0.256307 0.834755 0.487329 210 212 203
-0.120158 -0.048906 -0.015183 -0.458871 0.339918 0.820910 193 199 192
-0.120576 -0.049000 -0.015428 -0.616898 0.005667 0.787022 187 186 182
-0.119716 -0.048793 -0.014963 -0.393561 0.471383 0.789245 203 203 204
-0.120277 -0.047941 -0.016434 0.267659 0.753668 0.600286 196 219 204
-0.122431 -0.048687 -0.017416 -0.551902 -0.728457 0.405899 162 166 158
-0.124337 -0.047936 -0.019766 -0.643508 -0.760488 0.086912 148 151 140
-0.126412 -0.046659 -0.022810 -0.532256 -0.842104 -0.086973 129 134 126
-0.128331 -0.044665 -0.026486 -0.512815 -0.813978 -0.272873 107 107 100
-0.121721 -0.048912 -0.016614 -0.748980 -0.612692 0.252262 175 171 164
-0.129609 -0.043159 -0.029126 -0.361119 -0.904982 -0.224946 103 106 97
-0.130932 -0.041926 -0.031512 -0.365520 -0.921459 -0.131566 82 90 78
-0.126993 -0.046099 -0.023894 -0.462315 -0.848153 -0.258655 121 125 120
-0.129865 -0.042949 -0.029565 -0.437899 -0.875300 -0.205169 98 108 99
-0.119157 -0.048370 -0.015113 -0.099700 0.862103 0.496828 209 214 204
-0.130151 -0.042666 -0.030100 -0.464749 -0.853318 -0.236337 95 103 93
-0.128510 -0.044374 -0.026959 -0.574567 -0.763200 -0.295632 109 112 105
-0.124716 -0.047640 -0.020417 -0.588415 -0.808356 -0.018164 145 146 138
-0.124027 -0.048187 -0.019278 -0.721357 -0.637698 0.270155 146 157 144
-0.126060 -0.046927 -0.022268 -0.408817 -0.899715 -0.152908 136 136 129
-0.119251 -0.048763 -0.014781 -0.272395 0.596748 0.754781 202 211 207
-0.121341 -0.049089 -0.016140 -0.729538 -0.372882 0.573353 168 173 157
-0.122558 -0.045715 -0.020699 0.513847 0.849822 0.117320 169 173 161
-0.125708 -0.047171 -0.021729 -0.525151 -0.850941 0.010760 139 139 130
-0.131614 -0.041370 -0.032676 -0.346000 -0.904835 -0.248110 79 89 72
-0.131346 -0.041578 -0.032237 -0.339104 -0.906314 -0.252196 47 61 50
-0.131053 -0.041856 -0.031704 -0.371533 -0.910696 -0.180542 78 84 68
-0.122840 -0.045443 -0.021221 0.520720 0.841743 0.142545 158 163 151
-0.128074 -0.044976 -0.025979 -0.454626 -0.853307 -0.255308 104 105 101
-0.128868 -0.043773 -0.027899 -0.432772 -0.863740 -0.258189 103 109 100
-0.123567 -0.048337 -0.018755 -0.545199 -0.772544 0.325475 152 157 151
-0.123201 -0.048414 -0.018378 -0.506167 -0.802665 0.315473 159 162 154
-0.122048 -0.048702 -0.017135 -0.586257 -0.685589 0.431590 168 168 159
-0.125353 -0.047349 -0.021260 -0.423634 -0.904166 0.054929 137 142 133
-0.121524 -0.046444 -0.019098 0.359568 0.907972 0.215168 176 172 168
-0.129162 -0.043502 -0.028433 -0.361483 -0.899014 -0.247191 104 108 97
-0.122823 -0.048517 -0.017966 -0.557057 -0.803312 0.210662 165 165 153
-0.121871 -0.046204 -0.019638 0.433712 0.894687 0.106909 173 177 169
-0.127456 -0.045539 -0.024891 -0.439328 -0.884387 -0.157642 113 118 112
-0.128642 -0.044082 -0.027401 -0.570508 -0.769597 -0.286779 104 112 99
-0.127160 -0.045818 -0.024358 -0.518904 -0.810225 -0.272534 117 123 118
-0.122220 -0.045973 -0.020170 0.485557 0.871296 0.071247 172 174 169
-0.124976 -0.047454 -0.020853 -0.490295 -0.871121 0.027518 141 144 135
-0.120945 -0.049193 -0.015731 -0.694678 -0.237464 0.678995 167 169 158
-0.126732 -0.046328 -0.023474 -0.434391 -0.874109 -0.217342 126 127 121
-0.127767 -0.045273 -0.025434 -0.443207 -0.873763 -0.200262 110 111 103
-0.121180 -0.046698 -0.018562 0.366442 0.910794 0.190196 175 184 165
-0.120247 -0.047618 -0.016837 0.380171 0.813749 0.439639 199 205 200
-0.120425 -0.047323 -0.017293 0.387586 0.868445 0.309161 194 193 193
-0.130519 -0.042160 -0.031135 -0.408802 -0.893272 -0.186938 84 89 75
-0.119849 -0.048313 -0.015958 -0.020691 0.946383 0.322382 209 212 209
-0.119699 -0.049330 -0.014767 -0.530113 0.178953 0.828828 191 192 191
-0.119255 -0.049233 -0.014550 -0.425135 0.347190 0.835894 195 205 198
-0.118737 -0.048770 -0.014646 -0.107380 0.694328 0.711604 204 213 203
-0.120086 -0.049489 -0.015052 -0.607459 -0.009685 0.794292 176 179 167
-0.130122 -0.042500 -0.030645 -0.457066 -0.850007 -0.261875 62 71 60
-0.118786 -0.049186 -0.014368 -0.345668 0.426439 0.835861 204 206 201
-0.119370 -0.048276 -0.015819 -0.157209 0.973920 0.163600 203 210 203
-0.118917 -0.048217 -0.015577 0.014928 0.966623 0.255768 197 198 195
-0.118580 -0.048486 -0.015051 0.152584 0.906986 0.392548 202 205 200
-0.129375 -0.043093 -0.029594 -0.209673 -0.921662 -0.326460 82 91 77
-0.119669 -0.048074 -0.016421 0.168120 0.857964 0.485420 211 209 203
-0.129725 -0.042840 -0.030155 -0.305065 -0.910991 -0.277542 75 87 75
-0.118282 -0.049175 -0.014218 -0.200096 0.583721 0.786913 208 206 212
-0.118798 -0.049652 -0.014138 -0.440635 0.294079 0.848150 197 198 191
-0.125457 -0.047110 -0.022275 -0.278306 -0.927422 -0.249869 125 131 122
-0.119206 -0.049766 -0.014395 -0.578318 0.017682 0.815620 187 188 184
-0.118183 -0.048833 -0.014568 0.008883 0.776136 0.630504 204 209 204
-0.125036 -0.047377 -0.021766 -0.275647 -0.928053 -0.250472 125 132 122
-0.125738 -0.046867 -0.022882 -0.278518 -0.930305 -0.238663 121 125 116
-0.128023 -0.044618 -0.027122 -0.383203 -0.864298 -0.325797 52 52 50
-0.126958 -0.045762 -0.025053 -0.448927 -0.867887 -0.212690 101 106 95
-0.124305 -0.047922 -0.020611 -0.496488 -0.858001 -0.131659 136 139 133
-0.127255 -0.045489 -0.025588 -0.385258 -0.878034 -0.283960 94 93 89
-0.126683 -0.046051 -0.024529 -0.442172 -0.858364 -0.260181 96 100 91
-0.122279 -0.045878 -0.021125 0.617270 0.786695 0.009364 143 145 135
-0.122931 -0.048706 -0.018674 -0.444107 -0.843831 0.301194 148 151 143
-0.119894 -0.047545 -0.017429 0.440615 0.822218 0.360299 190 189 186
-0.120876 -0.046757 -0.019062 0.422081 0.905931 0.033734 164 170 163
-0.128929 -0.043310 -0.029271 -0.194587 -0.897897 -0.394864 71 76 66
-0.121384 -0.049338 -0.016752 -0.734923 -0.659694 0.157139 166 168 158
-0.128556 -0.043722 -0.028531 -0.348123 -0.892611 -0.286455 33 33 37
-0.122183 -0.048928 -0.017836 -0.546400 -0.817800 0.180691 156 159 150
-0.126385 -0.046344 -0.023992 -0.380562 -0.888611 -0.256011 101 106 89
-0.128220 -0.044341 -0.027604 -0.501635 -0.810280 -0.302998 58 69 60
-0.122469 -0.045729 -0.021451 0.636522 0.771050 -0.017980 141 144 138
-0.122555 -0.048779 -0.018299 -0.512392 -0.832592 0.210344 148 154 143
-0.121943 -0.046125 -0.020606 0.574946 0.817538 -0.032698 155 162 151
-0.119980 -0.049834 -0.015085 -0.682358 -0.479394 0.551878 166 169 155
-0.118317 -0.049617 -0.013962 -0.315079 0.453007 0.833973 201 203 200
-0.127734 -0.044925 -0.026594 -0.353017 -0.879871 -0.318130 69 59 57
-0.123318 -0.048653 -0.019056 -0.452536 -0.868894 0.200586 146 148 140
-0.121114 -0.049559 -0.016304 -0.723309 -0.613045 0.317807 168 169 158
-0.124703 -0.047596 -0.021304 -0.348542 -0.922261 -0.167189 128 133 125
-0.126080 -0.046621 -0.023458 -0.351536 -0.907539 -0.229773 106 114 104
-0.123989 -0.048218 -0.020067 -0.545332 -0.823418 -0.156825 140 143 136
-0.120735 -0.049664 -0.015890 -0.691258 -0.505782 0.516087 167 172 158
-0.121237 -0.046556 -0.019584 0.528988 0.848144 -0.028680 163 167 159
-0.118563 -0.048281 -0.015583 0.269437 0.939252 0.212625 194 195 189
-0.119698 -0.047859 -0.016957 0.249387 0.901466 0.353787 200 198 198
-0.121593 -0.046345 -0.020101 0.522822 0.852442 -0.000921 162 164 155
-0.119609 -0.049922 -0.014704 -0.666889 -0.306552 0.679179 170 172 160
-0.120350 -0.049761 -0.015479 -0.685612 -0.488448 0.539772 168 173 156
-0.128810 -0.043451 -0.029042 -0.292443 -0.900847 -0.320860 45 52 46
-0.120182 -0.047238 -0.018009 0.375455 0.905329 0.198531 177 182 174
-0.121815 -0.049065 -0.017410 -0.631350 -0.736779 0.241980 158 160 153
-0.120526 -0.046965 -0.018593 0.396561 0.905510 0.150967 167 174 161
-0.123726 -0.048509 -0.019568 -0.551700 -0.831372 -0.066695 141 144 134
-0.118762 -0.048164 -0.015897 0.059205 0.986187 0.154696 191 192 188
-0.117746 -0.049212 -0.014116 -0.008236 0.761320 0.648324 212 226 236
-0.117820 -0.049598 -0.013800 -0.258522 0.522683 0.812384 234 222 232
-0.119093 -0.048159 -0.016364 -0.028623 0.956536 0.290207 195 200 193
-0.127264 -0.045283 -0.026113 -0.310206 -0.886063 -0.344479 60 58 50
-0.117962 -0.048602 -0.015041 0.181624 0.908640 0.376013 196 202 196
-0.129121 -0.042963 -0.030134 -0.195875 -0.928702 -0.314874 51 58 54
-0.118289 -0.050111 -0.013764 -0.552394 -0.009016 0.833534 191 191 186
-0.117618 -0.048912 -0.014499 0.129559 0.870560 0.474699 197 208 201
-0.117852 -0.050057 -0.013542 -0.347447 0.427422 0.834620 193 199 193
-0.126877 -0.045619 -0.025616 -0.297698 -0.879347 -0.371652 57 62 52
-0.117301 -0.049589 -0.013670 -0.129250 0.649935 0.748919 243 247 255
-0.128379 -0.043577 -0.029091 -0.297847 -0.888494 -0.349093 12 12 8
-0.118918 -0.047938 -0.016818 0.026328 0.911857 0.409664 186 186 177
-0.117365 -0.050010 -0.013381 -0.230228 0.557027 0.797945 204 212 204
-0.117175 -0.049268 -0.014042 0.012286 0.788569 0.614823 230 226 242
-0.119210 -0.047703 -0.017422 0.000502 0.936787 0.349899 181 182 177
-0.126393 -0.045989 -0.025157 -0.328331 -0.884583 -0.331227 30 29 31
-0.125749 -0.046599 -0.023990 -0.437723 -0.832247 -0.340239 67 75 64
-0.123247 -0.048714 -0.019726 -0.349968 -0.927541 -0.131110 132 132 123
-0.125523 -0.046842 -0.023573 -0.436778 -0.873706 -0.214156 76 84 71
-0.118214 -0.050495 -0.013762 -0.581334 -0.112680 0.805825 181 182 169
-0.119008 -0.050504 -0.014402 -0.660735 -0.514814 0.546257 171 170 159
-0.122660 -0.048882 -0.019095 -0.307344 -0.951293 0.024112 137 138 129
-0.126067 -0.046281 -0.024619 -0.318116 -0.900559 -0.296302 39 38 41
-0.123987 -0.047876 -0.021240 -0.550277 -0.830159 -0.089615 113 121 103
-0.122289 -0.049002 -0.018669 -0.493915 -0.862784 0.107945 138 143 130
-0.117400 -0.048767 -0.014937 0.293184 0.939071 0.179410 190 196 194
-0.121327 -0.046554 -0.020480 0.634306 0.753269 -0.173902 139 144 135
-0.119518 -0.047493 -0.018015 0.303582 0.908308 0.287776 169 169 167
-0.118786 -0.047811 -0.017084 -0.028085 0.907116 0.419942 169 169 167
-0.120589 -0.046905 -0.019510 0.397314 0.916375 -0.048969 138 145 129
-0.121673 -0.046372 -0.020956 0.619675 0.771752 -0.142838 131 139 131
-0.117759 -0.048587 -0.015426 0.339790 0.932991 0.118615 188 189 183
-0.120146 -0.050218 -0.015648 -0.663287 -0.625931 0.410195 161 168 153
-0.120955 -0.046749 -0.019974 0.547159 0.834154 -0.069306 134 148 140
-0.120215 -0.047029 -0.019074 0.394464 0.916515 0.066319 138 144 130
-0.118454 -0.048114 -0.016493 0.170004 0.952567 0.252420 177 188 178
-0.120348 -0.046986 -0.019228 0.380074 0.922572 -0.066369 142 144 137
-0.121162 -0.049648 -0.017077 -0.719425 -0.685160 0.113945 156 158 152
-0.124624 -0.047339 -0.022339 -0.422296 -0.888759 -0.178249 100 108 87
-0.121807 -0.046294 -0.021149 0.636670 0.767645 -0.073302 137 143 136
-0.127560 -0.044555 -0.027674 -0.326287 -0.868872 -0.372288 0 3 8
-0.121926 -0.049188 -0.018186 -0.574469 -0.802041 0.163445 143 146 133
-0.119933 -0.047235 -0.018627 0.397404 0.904069 0.157254 152 157 147
-0.127341 -0.044852 -0.027182 -0.328127 -0.879645 -0.344321 0 0 1
-0.125052 -0.047042 -0.023002 -0.410847 -0.910804 -0.040529 99 103 88
-0.120521 -0.050066 -0.016115 -0.657917 -0.704985 0.264842 164 163 159
-0.119781 -0.050308 -0.015257 -0.670352 -0.531815 0.517495 165 169 154
-0.120872 -0.049893 -0.016586 -0.730324 -0.666936 0.147726 159 160 155
-0.119392 -0.050399 -0.014847 -0.674456 -0.561498 0.479405 166 170 157
-0.121570 -0.049343 -0.017739 -0.648136 -0.748738 0.138968 155 155 142
-0.118612 -0.050529 -0.014076 -0.619923 -0.263398 0.739133 173 175 164
-0.118113 -0.048371 -0.015954 0.370677 0.916321 0.151507 185 189 180
-0.124363 -0.047563 -0.021903 -0.548580 -0.831537 -0.087220 102 106 95
-0.126782 -0.045433 -0.026135 -0.285728 -0.887601 -0.361282 8 4 0
-0.123649 -0.048169 -0.020693 -0.459782 -0.876664 -0.141638 118 122 110
-0.116798 -0.049631 -0.013564 0.019029 0.736232 0.676462 210 219 209
-0.116847 -0.050028 -0.013263 -0.118261 0.622282 0.773809 210 211 212
-0.126988 -0.045166 -0.026673 -0.293512 -0.893820 -0.339023 2 1 2
-0.117350 -0.050514 -0.013197 -0.526353 -0.036987 0.849461 193 194 186
-0.116932 -0.050431 -0.012946 -0.263906 0.533141 0.803813 203 204 198
-0.116992 -0.049041 -0.014487 0.191385 0.891465 0.410687 197 203 200
-0.117755 -0.050658 -0.013458 -0.556165 -0.079134 0.827295 185 186 174
-0.123288 -0.048512 -0.020237 -0.392898 -0.869675 -0.298825 120 125 110
-0.116654 -0.049369 -0.013971 0.151894 0.841633 0.518250 207 210 209
-0.122939 -0.048812 -0.019707 -0.279049 -0.950493 -0.136733 126 128 114
-0.126226 -0.045804 -0.025654 -0.275004 -0.878754 -0.390082 2 0 0
-0.116374 -0.050446 -0.012839 -0.165523 0.685903 0.708618 201 211 206
-0.116266 -0.050071 -0.013161 -0.104932 0.717165 0.688958 204 217 210
-0.125824 -0.046156 -0.025172 -0.261853 -0.893986 -0.363622 0 0 0
-0.116169 -0.049753 -0.013551 0.063379 0.822337 0.565460 210 208 206
-0.115907 -0.050410 -0.012678 -0.210164 0.741644 0.637021 208 212 206
-0.116015 -0.050790 -0.012381 -0.498376 -0.040796 0.866000 198 202 198
-0.116398 -0.050911 -0.012627 -0.519931 -0.056025 0.852369 195 194 189
-0.115555 -0.050742 -0.012141 -0.243723 0.565114 0.788191 201 208 202
-0.125088 -0.046757 -0.024119 -0.337281 -0.868948 -0.362173 6 6 5
-0.115791 -0.050076 -0.013037 -0.062436 0.815172 0.575844 207 215 210
-0.117643 -0.051095 -0.013481 -0.580265 -0.591237 0.560117 173 172 167
-0.126357 -0.045325 -0.026686 -0.272541 -0.882062 -0.384302 0 0 0
-0.125413 -0.046487 -0.024691 -0.963283 -0.235941 -0.128126 13 14 14
-0.123424 -0.048311 -0.021159 -0.289230 -0.954927 -0.066775 78 85 68
-0.124027 -0.047912 -0.022074 -0.593126 -0.801158 -0.079671 45 38 42
-0.121333 -0.049609 -0.018086 -0.716698 -0.671433 0.188470 129 132 117
-0.123713 -0.048187 -0.021527 -0.430696 -0.893840 -0.124702 59 62 58
-0.116730 -0.048998 -0.014983 0.343986 0.935897 0.075973 185 188 184
-0.119555 -0.050676 -0.015514 -0.618072 -0.711481 0.334339 162 163 152
-0.117452 -0.048636 -0.015957 0.359801 0.928962 0.087018 171 173 168
-0.120912 -0.049970 -0.017365 -0.766365 -0.630232 0.124468 141 149 136
-0.118021 -0.051051 -0.013867 -0.598742 -0.632592 0.491258 171 175 164
-0.118407 -0.050979 -0.014259 -0.603791 -0.654816 0.454590 175 175 163
-0.124296 -0.047635 -0.022593 -0.459574 -0.860366 -0.220367 32 25 23
-0.117806 -0.048429 -0.016466 0.410126 0.905160 0.111721 161 165 154
-0.126131 -0.045632 -0.026205 -0.307958 -0.876011 -0.371170 0 0 0
-0.121070 -0.046881 -0.020762 0.669378 0.710911 -0.215729 125 128 124
-0.125416 -0.046516 -0.024688 -0.948888 -0.297481 -0.105434 13 14 14
-0.125623 -0.046208 -0.025182 -0.582729 -0.792877 -0.178253 0 0 1
-0.124949 -0.047094 -0.023696 -0.440078 -0.810620 -0.386299 3 1 7
-0.124790 -0.047281 -0.023369 -0.510159 -0.859834 -0.020571 6 1 10
-0.120271 -0.050389 -0.016402 -0.600235 -0.779858 0.177592 153 157 150
-0.119899 -0.050552 -0.015929 -0.626019 -0.732646 0.267077 156 160 149
-0.122024 -0.049219 -0.019071 -0.601538 -0.796495 0.061209 118 123 105
-0.118781 -0.050895 -0.014657 -0.620393 -0.662650 0.419533 174 171 158
-0.119157 -0.050797 -0.015067 -0.626639 -0.660800 0.413118 167 170 158
-0.116370 -0.049163 -0.014523 0.296345 0.933848 0.200268 197 198 190
-0.117092 -0.048818 -0.015482 0.341404 0.934251 0.103041 175 178 173
-0.120631 -0.050229 -0.016880 -0.665562 -0.725962 0.173222 146 153 141
-0.121673 -0.049445 -0.018574 -0.645135 -0.761425 0.063496 116 118 102
-0.116801 -0.051079 -0.012879 -0.521470 -0.053466 0.851593 187 188 177
-0.122421 -0.048957 -0.019702 -0.444586 -0.895226 -0.030234 105 114 93
-0.117233 -0.051160 -0.013154 -0.548539 -0.494280 0.674382 177 177 171
-0.123041 -0.048446 -0.020754 -0.307091 -0.933348 -0.185891 92 91 77
-0.122760 -0.048701 -0.020260 -0.367288 -0.890564 -0.268321 104 104 87
-0.115409 -0.050414 -0.012540 -0.092346 0.781816 0.616632 206 215 206
-0.115979 -0.049511 -0.013992 0.170997 0.873807 0.455216 204 205 201
-0.115613 -0.049835 -0.013480 0.125663 0.884540 0.449218 205 215 207
-0.123948 -0.047711 -0.022587 -0.155307 -0.910214 -0.383915 1 0 3
-0.114975 -0.050772 -0.012075 -0.028432 0.766812 0.641241 208 213 203
-0.115237 -0.050148 -0.012963 0.086406 0.870505 0.484514 207 211 208
-0.123583 -0.047990 -0.022047 -0.136323 -0.915636 -0.378190 10 7 15
-0.123227 -0.048259 -0.021502 -0.135267 -0.946867 -0.291796 21 21 25
-0.114834 -0.050472 -0.012466 0.036997 0.844521 0.534243 209 215 208
-0.114542 -0.051161 -0.011638 -0.265467 0.365760 0.892046 205 208 202
-0.122075 -0.049205 -0.019904 -0.301296 -0.889912 -0.342460 42 52 40
-0.114452 -0.050826 -0.011981 -0.021865 0.770936 0.636537 210 214 210
-0.115797 -0.051547 -0.012317 -0.576438 -0.366771 0.730204 187 188 181
-0.121736 -0.049480 -0.019372 -0.383213 -0.909163 -0.163005 94 101 85
-0.120012 -0.050639 -0.016749 -0.549778 -0.833276 0.058269 135 134 126
-0.119650 -0.050824 -0.016261 -0.547202 -0.829178 0.114168 140 145 136
-0.120378 -0.050451 -0.017249 -0.503940 -0.858287 0.096893 134 136 124
-0.115703 -0.049412 -0.014542 0.328884 0.940603 0.084265 189 192 187
-0.115079 -0.049946 -0.013470 0.218624 0.898355 0.381002 202 210 205
-0.118171 -0.051342 -0.014515 -0.561606 -0.741296 0.367530 170 172 159
-0.118915 -0.051142 -0.015334 -0.589094 -0.756961 0.282805 160 162 152
-0.121308 -0.049730 -0.018777 -0.545577 -0.830135 -0.114984 50 49 43
-0.116785 -0.048866 -0.016005 0.366601 0.927756 0.069793 154 157 146
-0.116602 -0.051523 -0.013048 -0.452449 -0.728942 0.513745 177 176 171
-0.121160 -0.050045 -0.018325 -0.780276 -0.620768 0.076267 112 113 101
-0.120748 -0.050309 -0.017709 -0.680040 -0.711286 0.177814 128 128 115
-0.117159 -0.048746 -0.016438 0.380972 0.924353 0.020756 145 148 146
-0.118545 -0.051255 -0.014917 -0.584759 -0.731271 0.351139 167 167 156
-0.119311 -0.050991 -0.015819 -0.573742 -0.805974 0.145694 151 155 139
-0.116200 -0.051538 -0.012707 -0.460464 -0.746670 0.480058 181 181 175
-0.117779 -0.051433 -0.014105 -0.558657 -0.736657 0.381101 172 173 160
-0.117003 -0.051521 -0.013381 -0.459770 -0.705120 0.539831 173 177 169
-0.116431 -0.049072 -0.015508 0.373747 0.925911 0.054793 170 170 161
-0.117394 -0.051515 -0.013714 -0.494333 -0.754761 0.431241 173 173 167
-0.116069 -0.049241 -0.015039 0.354071 0.933253 0.060603 178 182 174
-0.115385 -0.051515 -0.012078 -0.485017 -0.090606 0.869798 189 192 185
-0.115341 -0.049606 -0.014065 0.258247 0.911847 0.319129 189 194 191
-0.114955 -0.051439 -0.011835 -0.457730 -0.048919 0.887745 194 198 191
-0.123363 -0.047810 -0.022543 -0.136887 -0.910876 -0.389316 0 0 1
-0.122670 -0.048360 -0.021438 -0.258999 -0.915646 -0.307427 1 0 4
-0.123004 -0.048101 -0.022006 -0.154075 -0.922998 -0.352613 0 0 2
-0.114634 -0.050255 -0.012929 0.111295 0.917778 0.381178 206 213 208
-0.114305 -0.050545 -0.012381 0.033777 0.853590 0.519849 214 219 212
-0.122267 -0.048694 -0.020949 -0.349186 -0.878086 -0.327162 1 0 7
-0.113992 -0.051222 -0.011551 -0.077241 0.642267 0.762579 204 209 202
-0.113893 -0.050883 -0.011900 -0.009558 0.790408 0.612506 212 217 218
-0.121910 -0.049016 -0.020428 -0.238735 -0.902964 -0.357298 1 1 8
-0.121195 -0.049573 -0.019340 -0.142781 -0.937866 -0.316261 22 37 32
-0.121527 -0.049317 -0.019910 -0.187314 -0.914504 -0.358603 25 32 37
-0.114098 -0.050326 -0.012847 0.068703 0.901862 0.426526 208 210 208
-0.114413 -0.051808 -0.011593 -0.438240 -0.062431 0.896687 201 204 195
-0.113729 -0.050619 -0.012318 0.063949 0.877726 0.474876 213 219 212
-0.113447 -0.051249 -0.011451 -0.063652 0.702072 0.709256 212 216 211
-0.113959 -0.051746 -0.011386 -0.410137 -0.004196 0.912014 202 210 206
-0.122395 -0.048231 -0.021992 -0.272784 -0.897684 -0.346052 0 0 0
-0.114364 -0.050122 -0.013479 0.147866 0.950858 0.272037 202 203 200
-0.118667 -0.051426 -0.015655 -0.563806 -0.817781 0.115567 148 142 132
-0.113485 -0.051670 -0.011177 -0.199604 0.412020 0.889043 207 207 196
-0.113324 -0.050935 -0.011823 0.025804 0.827081 0.561490 210 217 215
-0.114673 -0.049805 -0.014117 0.290480 0.928911 0.229665 183 190 184
-0.114795 -0.052065 -0.011829 -0.494303 -0.227767 0.838920 184 186 182
-0.117532 -0.051727 -0.014418 -0.401672 -0.857881 0.320469 164 171 158
-0.117915 -0.051652 -0.014811 -0.517256 -0.795649 0.315262 161 164 150
-0.115406 -0.049501 -0.015043 0.373580 0.927520 -0.011988 164 171 155
-0.115965 -0.051865 -0.013002 -0.445800 -0.763967 0.466494 173 175 170
-0.121840 -0.048836 -0.020990 -0.290657 -0.901649 -0.320234 0 0 1
-0.116141 -0.049199 -0.015963 0.403583 0.914939 0.002743 137 142 135
-0.119392 -0.051042 -0.016664 -0.507500 -0.860406 0.046302 120 120 111
-0.120102 -0.050630 -0.017677 -0.449345 -0.889621 0.081628 96 97 88
-0.115031 -0.049619 -0.014615 0.317830 0.946368 0.058066 177 179 171
-0.118305 -0.051551 -0.015240 -0.547000 -0.789646 0.277940 154 157 141
-0.121517 -0.049107 -0.020440 -0.222389 -0.912191 -0.344168 0 1 0
-0.115769 -0.049330 -0.015521 0.381874 0.924070 0.016348 154 159 151
-0.119733 -0.050777 -0.017222 -0.483220 -0.875494 0.002615 78 75 68
-0.116357 -0.051844 -0.013343 -0.434945 -0.791291 0.429744 168 172 165
-0.122114 -0.048553 -0.021513 -0.343017 -0.877665 -0.334729 0 0 0
-0.116750 -0.051803 -0.013706 -0.430196 -0.841949 0.325660 169 172 160
-0.115570 -0.051889 -0.012656 -0.555860 -0.736474 0.385521 174 176 167
-0.117128 -0.051755 -0.014072 -0.351149 -0.889601 0.292070 167 170 160
-0.119031 -0.051191 -0.016218 -0.516508 -0.855806 0.028581 133 133 117
-0.115220 -0.052084 -0.012174 -0.645520 -0.644446 0.409872 175 182 174
-0.113858 -0.050133 -0.013344 0.095628 0.965053 0.243985 192 195 191
-0.112915 -0.051301 -0.011341 -0.068309 0.729983 0.680043 212 218 207
-0.113506 -0.050406 -0.012797 0.090793 0.907342 0.410473 203 207 202
-0.113145 -0.050695 -0.012261 0.066398 0.889051 0.452967 207 209 204
-0.112967 -0.051753 -0.011056 -0.140665 0.524764 0.839546 206 208 201
-0.112773 -0.051005 -0.011742 -0.008665 0.823626 0.567067 209 218 208
-0.112387 -0.051342 -0.011245 -0.094165 0.696090 0.711752 215 216 213
-0.112445 -0.051745 -0.010959 -0.154561 0.539211 0.827866 214 217 210
-0.112582 -0.050772 -0.012193 0.068352 0.901036 0.428325 208 210 208
-0.112924 -0.052270 -0.010906 -0.421989 -0.061170 0.904535 229 233 215
-0.113777 -0.052483 -0.011378 -0.482471 -0.334212 0.809644 203 205 224
-0.117280 -0.051970 -0.014774 -0.251503 -0.931029 0.264445 149 155 144
-0.113356 -0.052397 -0.011125 -0.453649 -0.157432 0.877164 211 215 205
-0.112891 -0.050477 -0.012781 0.088229 0.905540 0.414985 192 197 192
-0.117666 -0.051916 -0.015157 -0.403955 -0.884667 0.232774 141 143 124
-0.116103 -0.052140 -0.013655 -0.462739 -0.820082 0.336658 166 167 159
-0.114962 -0.052464 -0.012383 -0.613195 -0.687655 0.388746 174 179 172
-0.115124 -0.049657 -0.015484 0.421123 0.905573 -0.050921 142 145 136
-0.113998 -0.050007 -0.014196 0.200998 0.962782 0.180697 172 174 171
-0.115324 -0.052234 -0.012923 -0.626980 -0.703755 0.334101 164 173 165
-0.114358 -0.049824 -0.014683 0.300605 0.944239 0.134343 154 155 150
-0.113628 -0.050149 -0.013745 0.260644 0.962467 0.075643 179 181 174
-0.116493 -0.052063 -0.014056 -0.458286 -0.862867 0.213151 167 166 150
-0.118739 -0.051334 -0.016657 -0.520509 -0.853117 -0.035525 76 75 66
-0.118054 -0.051830 -0.015576 -0.526926 -0.837692 0.143600 131 133 115
-0.115715 -0.052184 -0.013296 -0.469663 -0.770848 0.430360 166 168 161
-0.118490 -0.051545 -0.016232 -0.567197 -0.823450 -0.014761 101 96 82
-0.114571 -0.052502 -0.012032 -0.521088 -0.672243 0.525887 175 181 173
-0.113264 -0.050279 -0.013320 0.275503 0.960054 0.048932 181 187 179
-0.112238 -0.051068 -0.011653 0.046813 0.885335 0.462591 215 218 212
-0.114170 -0.052516 -0.011701 -0.510218 -0.575550 0.639078 183 180 179
-0.116872 -0.051942 -0.014514 -0.290890 -0.927363 0.235332 153 156 145
-0.112477 -0.052193 -0.010700 -0.243412 0.311980 0.918378 203 208 201
-0.111839 -0.051385 -0.011154 -0.047102 0.750874 0.658763 216 223 219
-0.111926 -0.051759 -0.010842 -0.173787 0.546986 0.818904 216 221 217
-0.111955 -0.052195 -0.010578 -0.210751 0.387560 0.897431 205 210 205
-0.112370 -0.050573 -0.012672 0.130184 0.942147 0.308888 187 192 187
-0.112014 -0.050845 -0.012127 0.061081 0.901259 0.428955 203 206 205
-0.111662 -0.051131 -0.011584 0.047623 0.891873 0.449772 214 220 214
-0.111388 -0.051778 -0.010712 -0.151910 0.612595 0.775662 219 224 219
-0.111282 -0.051434 -0.011061 -0.009283 0.826219 0.563273 221 223 223
-0.111428 -0.052217 -0.010436 -0.236383 0.343067 0.909080 210 214 210
-0.115118 -0.052564 -0.013197 -0.713769 -0.588088 0.380378 157 160 148
-0.117788 -0.052011 -0.015987 -0.201399 -0.972042 -0.120717 39 37 28
-0.112751 -0.052893 -0.010956 -0.466634 -0.444180 0.764824 193 194 199
-0.113155 -0.052905 -0.011274 -0.499781 -0.612983 0.611941 187 190 177
-0.112583 -0.050489 -0.013363 0.303932 0.952666 0.007294 175 178 173
-0.115478 -0.052486 -0.013612 -0.568403 -0.714430 0.408053 153 157 145
-0.113957 -0.052893 -0.011944 -0.507542 -0.689248 0.517047 176 178 165
-0.114348 -0.052860 -0.012300 -0.532351 -0.708440 0.463374 167 174 160
-0.118115 -0.051828 -0.016460 -0.452282 -0.888055 -0.082461 3 0 13
-0.112954 -0.050354 -0.013814 0.307520 0.951002 0.032040 163 164 156
-0.113552 -0.052912 -0.011599 -0.495017 -0.630961 0.597366 187 189 177
-0.110878 -0.051797 -0.010597 -0.125017 0.668432 0.733192 218 227 221
-0.116219 -0.052282 -0.014442 -0.562526 -0.789319 0.246050 142 137 124
-0.112205 -0.050598 -0.012952 0.268194 0.963342 -0.006731 178 182 174
-0.116991 -0.052113 -0.015252 -0.189266 -0.967793 0.165998 116 116 94
-0.116627 -0.052131 -0.014936 -0.403319 -0.909077 0.104466 123 123 106
-0.115842 -0.052408 -0.014008 -0.569993 -0.750825 0.333722 145 150 135
-0.114723 -0.052808 -0.012685 -0.633506 -0.665212 0.395176 162 165 152
-0.112326 -0.052851 -0.010697 -0.434819 -0.365573 0.822975 199 202 194
-0.111446 -0.050918 -0.012060 0.074466 0.912768 0.401634 199 202 199
-0.117375 -0.052107 -0.015637 -0.074677 -0.982521 -0.170516 73 67 63
-0.111866 -0.052784 -0.010452 -0.355236 0.049404 0.933470 208 210 203
-0.111097 -0.051196 -0.011512 0.041057 0.884896 0.463975 205 210 209
-0.110934 -0.052224 -0.010301 -0.306866 0.477148 0.823506 212 218 211
-0.111403 -0.052698 -0.010229 -0.449209 0.247326 0.858510 203 207 201
-0.110743 -0.051503 -0.010982 0.035796 0.865542 0.499555 219 222 221
-0.111748 -0.050718 -0.012674 0.228115 0.968527 0.099587 181 184 179
-0.110995 -0.052654 -0.010033 -0.316836 0.309197 0.896667 208 212 207
-0.117614 -0.051849 -0.016348 0.130571 -0.913393 -0.385572 18 13 8
-0.110346 -0.051828 -0.010491 -0.048916 0.739935 0.670897 218 228 219
-0.110421 -0.052220 -0.010191 -0.146580 0.567956 0.809902 216 224 215
-0.117136 -0.051809 -0.016173 0.074174 -0.869035 -0.489158 13 13 8
-0.110550 -0.051260 -0.011430 0.054200 0.889729 0.453260 202 209 210
-0.110449 -0.052655 -0.009925 -0.156299 0.389630 0.907611 205 208 204
-0.116772 -0.052163 -0.015607 0.015592 -0.858357 -0.512815 14 23 32
-0.110868 -0.051019 -0.012011 0.197120 0.961437 0.191787 193 194 192
-0.110174 -0.051568 -0.010912 0.027953 0.858703 0.511710 212 216 214
-0.109875 -0.052253 -0.010080 -0.090934 0.595536 0.798166 219 225 217
-0.109786 -0.051884 -0.010406 0.001064 0.795443 0.606027 220 227 220
-0.115907 -0.052700 -0.014552 -0.396963 -0.900596 -0.177048 101 105 85
-0.111280 -0.053148 -0.010318 -0.396071 -0.343483 0.851556 215 211 206
-0.116140 -0.052414 -0.015060 -0.481260 -0.849152 -0.217555 52 52 57
-0.111527 -0.050780 -0.013029 0.262488 0.964181 -0.038129 172 171 163
-0.115623 -0.052816 -0.014215 -0.539104 -0.815902 0.208977 109 114 95
-0.112925 -0.053305 -0.011501 -0.490263 -0.663592 0.565055 183 181 171
-0.112288 -0.050586 -0.013858 0.316310 0.948396 -0.022202 147 150 145
-0.115260 -0.052935 -0.013798 -0.547634 -0.821377 0.159490 98 109 92
-0.113319 -0.053287 -0.011845 -0.492053 -0.710442 0.503145 172 173 165
-0.113715 -0.053258 -0.012199 -0.503544 -0.716229 0.483176 171 172 156
-0.114107 -0.053213 -0.012568 -0.475424 -0.784527 0.398107 154 158 146
-0.112521 -0.053317 -0.011165 -0.483039 -0.668466 0.565532 182 184 177
-0.114491 -0.053159 -0.012941 -0.539643 -0.735831 0.409070 146 144 131
-0.111698 -0.053256 -0.010567 -0.418696 -0.403503 0.813559 202 199 194
-0.111146 -0.050864 -0.012646 0.249479 0.968134 0.021833 184 175 173
-0.111910 -0.050694 -0.013449 0.277107 0.958797 -0.062615 161 166 150
-0.114885 -0.053078 -0.013352 -0.654461 -0.650008 0.386227 129 129 114
-0.112114 -0.053328 -0.010835 -0.451732 -0.581290 0.676787 185 191 181
-0.116289 -0.052264 -0.015363 -0.294098 -0.942472 -0.158913 22 22 32
-0.110844 -0.053058 -0.010091 -0.373471 -0.301277 0.877354 210 209 204
-0.116600 -0.051845 -0.016070 -0.069976 -0.863433 -0.499588 25 18 35
-0.109889 -0.052710 -0.009819 -0.140996 0.338170 0.930463 210 214 209
-0.109959 -0.051352 -0.011387 0.146779 0.947012 0.285698 202 204 200
-0.109613 -0.051632 -0.010836 0.033745 0.864355 0.501748 214 216 210
-0.109328 -0.052300 -0.009985 -0.084835 0.618805 0.780950 219 226 221
-0.110263 -0.051142 -0.011994 0.177806 0.961655 0.208818 184 192 183
-0.109225 -0.051951 -0.010327 -0.000467 0.782413 0.622761 212 220 216
-0.115445 -0.052818 -0.014555 -0.212045 -0.968197 -0.132777 74 63 61
-0.109361 -0.052734 -0.009726 -0.256414 0.290321 0.921936 212 211 211
-0.108801 -0.052344 -0.009890 -0.105882 0.634686 0.765482 218 222 218
-0.109045 -0.051705 -0.010771 0.117271 0.925182 0.360951 206 214 206
-0.109377 -0.051454 -0.011340 0.135980 0.944571 0.298821 200 199 197
-0.108868 -0.052753 -0.009592 -0.177163 0.450572 0.874984 216 215 211
-0.109712 -0.051269 -0.011858 0.202489 0.971334 0.124531 185 188 179
-0.110851 -0.050974 -0.013104 0.280002 0.958054 -0.061078 156 163 154
-0.108678 -0.052010 -0.010241 -0.029467 0.768729 0.638896 214 219 215
-0.110088 -0.051160 -0.012291 0.270142 0.962808 0.004984 175 180 172
-0.113855 -0.053494 -0.012892 -0.391898 -0.860097 0.326570 126 123 107
-0.111074 -0.053631 -0.010481 -0.400159 -0.599545 0.693122 186 196 188
-0.113464 -0.053539 -0.012527 -0.419361 -0.858883 0.294033 144 148 131
-0.111483 -0.053672 -0.010773 -0.417344 -0.713036 0.563386 183 186 178
-0.111624 -0.050834 -0.013890 0.294021 0.949297 -0.111295 130 131 130
-0.115661 -0.052592 -0.015321 -0.402041 -0.883117 -0.241803 0 0 0
-0.111231 -0.050876 -0.013525 0.272747 0.959656 -0.068338 148 143 143
-0.114934 -0.052927 -0.014374 -0.305114 -0.934134 -0.185200 66 54 51
-0.113077 -0.053601 -0.012149 -0.447338 -0.838461 0.311242 159 164 149
-0.114739 -0.053153 -0.013977 -0.432515 -0.883242 -0.181146 74 65 66
-0.115864 -0.052378 -0.015712 -0.446377 -0.858746 -0.251598 1 0 2
-0.114252 -0.053457 -0.013258 -0.459366 -0.853695 0.245329 94 88 82
-0.111884 -0.053679 -0.011096 -0.429493 -0.731999 0.528879 178 183 177
-0.110655 -0.053572 -0.010208 -0.383698 -0.421954 0.821420 193 201 194
-0.112283 -0.053676 -0.011426 -0.448654 -0.732548 0.511940 174 181 173
-0.112685 -0.053655 -0.011776 -0.461947 -0.785581 0.411663 174 174 166
-0.110222 -0.053457 -0.009980 -0.353302 -0.332435 0.874452 207 206 201
-0.110469 -0.051063 -0.012717 0.275417 0.959959 -0.051238 164 166 158
-0.109761 -0.053381 -0.009774 -0.300093 -0.141078 0.943420 213 217 209
-0.109301 -0.053314 -0.009594 -0.332350 -0.114480 0.936182 216 223 212
-0.108248 -0.052391 -0.009793 -0.078592 0.676374 0.732354 217 221 219
-0.108321 -0.052780 -0.009485 -0.128671 0.477065 0.869399 216 218 215
-0.108825 -0.053274 -0.009430 -0.251991 0.061921 0.965746 221 226 220
-0.108475 -0.051800 -0.010715 0.117036 0.923812 0.364518 205 210 203
-0.108804 -0.051549 -0.011288 0.122770 0.937415 0.325855 192 196 188
-0.108106 -0.052078 -0.010181 0.079755 0.886533 0.455739 213 218 214
-0.107699 -0.052419 -0.009702 -0.033940 0.721828 0.691240 216 222 217
-0.107777 -0.052823 -0.009389 -0.107783 0.493972 0.862772 212 216 214
-0.109159 -0.053705 -0.009675 -0.317879 -0.317316 0.893455 215 218 212
-0.112433 -0.053940 -0.012094 -0.471892 -0.829536 0.298642 158 157 139
