ply
format ascii 1.0
comment Exported by Geomagic
element vertex 696
property float x
property float y
property float z
property float nx
property float ny
property float nz
property uchar red
property uchar green
property uchar blue
end_header
-0.075849 0.066877 -0.008395 0.083490 0.638904 0.764743 199 201 192
-0.075742 0.067248 -0.008707 -0.062697 0.618035 0.783646 189 197 184
-0.075929 0.066501 -0.008072 0.101333 0.554524 0.825975 192 197 194
-0.080426 0.064305 -0.009478 0.032562 -0.993481 -0.109248 142 152 150
-0.075196 0.067664 -0.008876 -0.166779 0.630575 0.757998 184 188 175
-0.075426 0.068282 -0.009766 0.173282 0.926201 0.334852 167 165 140
-0.123632 0.054968 -0.035038 -0.070401 -0.950532 -0.302543 121 124 113
-0.123963 0.055219 -0.035612 -0.067603 -0.895575 -0.439745 100 101 88
-0.075069 0.067967 -0.009252 -0.022265 0.790077 0.612604 178 173 160
-0.122767 0.055162 -0.034580 0.321532 -0.946600 0.023758 125 133 125
-0.075734 0.068505 -0.010365 0.207623 0.953445 0.218711 95 90 75
-0.075219 0.067213 -0.008621 -0.102882 0.561204 0.821259 196 196 188
-0.075300 0.066830 -0.008310 -0.024113 0.589023 0.807756 195 199 189
-0.079912 0.064285 -0.009380 -0.092831 -0.987254 -0.129277 139 147 156
-0.074654 0.067633 -0.008757 -0.068410 0.690700 0.719898 189 183 172
-0.121834 0.055272 -0.034202 0.301117 -0.953537 0.009717 102 105 102
-0.075324 0.066361 -0.008031 0.082443 0.282705 0.955657 185 189 187
-0.080197 0.064475 -0.010017 -0.106046 -0.987072 -0.120179 159 164 162
-0.079437 0.064172 -0.009131 -0.203088 -0.978212 0.043088 150 159 156
-0.075240 0.068281 -0.010057 0.310035 0.937934 0.155433 148 140 117
-0.082316 0.063925 -0.011224 -0.014814 -0.999165 0.038069 47 47 41
-0.078583 0.064334 -0.008640 -0.065613 -0.725697 0.684879 177 185 176
-0.078135 0.064518 -0.008472 -0.036240 -0.612772 0.789428 181 191 184
-0.081505 0.063923 -0.010588 0.151541 -0.953155 0.261786 64 60 65
-0.075459 0.068406 -0.010404 0.328444 0.935207 0.132331 76 64 68
-0.123094 0.054885 -0.034923 0.072675 -0.997038 -0.025191 107 119 101
-0.082283 0.063919 -0.011222 -0.221562 -0.973398 0.058373 47 47 41
-0.123454 0.055069 -0.035410 -0.109590 -0.944959 -0.308290 55 49 43
-0.081921 0.063843 -0.010846 -0.080515 -0.980147 0.181189 35 30 34
-0.081052 0.064112 -0.010423 0.289863 -0.923734 0.250390 84 83 83
-0.077693 0.064702 -0.008312 -0.037887 -0.566125 0.823448 186 196 191
-0.079015 0.064209 -0.008870 -0.119575 -0.847153 0.517720 171 171 165
-0.077244 0.064902 -0.008165 -0.008538 -0.503263 0.864091 191 198 194
-0.076789 0.065140 -0.008045 0.065345 -0.457806 0.886647 192 201 194
-0.075833 0.065747 -0.007910 0.122107 -0.173097 0.977306 184 181 182
-0.076320 0.065416 -0.007965 0.088468 -0.343501 0.934976 186 195 189
-0.079785 0.064364 -0.009690 -0.240272 -0.963132 -0.121020 136 147 152
-0.074678 0.067170 -0.008522 -0.096970 0.496413 0.862654 194 195 180
-0.074476 0.067891 -0.009184 0.028958 0.907157 0.419795 183 180 164
-0.074107 0.067575 -0.008661 -0.054308 0.711838 0.700241 200 191 179
-0.074694 0.066718 -0.008267 -0.002266 0.521188 0.853438 197 193 183
-0.074763 0.068089 -0.009811 0.169911 0.969239 0.178063 167 159 136
-0.074126 0.067120 -0.008424 -0.113463 0.451643 0.884954 205 195 182
-0.073948 0.067854 -0.009082 -0.044086 0.840444 0.540102 191 183 169
-0.074671 0.066214 -0.008047 0.017666 0.143497 0.989494 193 191 184
-0.074239 0.068058 -0.009698 0.015838 0.975880 0.217731 179 167 149
-0.073546 0.067509 -0.008596 0.001853 0.672676 0.739934 192 191 176
-0.074135 0.066646 -0.008191 -0.069289 0.384173 0.920658 200 194 181
-0.075135 0.065619 -0.008011 0.056192 -0.176351 0.982722 194 191 184
-0.078738 0.064042 -0.009284 -0.119335 -0.964841 0.234179 160 158 156
-0.077898 0.064180 -0.008752 -0.073666 -0.812041 0.578932 171 179 173
-0.079873 0.064348 -0.010545 -0.279794 -0.957469 0.070490 101 104 105
-0.081218 0.063766 -0.011026 0.095420 -0.915659 0.390465 26 24 28
-0.074567 0.068087 -0.010174 0.129404 0.991334 0.022618 120 135 116
-0.078326 0.064067 -0.008988 -0.086832 -0.946035 0.312218 165 169 164
-0.075612 0.065310 -0.008091 0.059783 -0.397555 0.915629 187 185 178
-0.077459 0.064340 -0.008572 -0.044894 -0.614374 0.787736 178 183 178
-0.076086 0.065036 -0.008189 0.077978 -0.516372 0.852807 172 178 178
-0.077018 0.064517 -0.008403 0.028696 -0.564452 0.824967 186 190 184
-0.076557 0.064771 -0.008295 0.104135 -0.533188 0.839563 184 188 179
-0.073594 0.067082 -0.008336 -0.120799 0.450246 0.884695 198 195 183
-0.079124 0.064120 -0.009717 -0.337507 -0.940358 -0.042621 147 151 136
-0.073407 0.067820 -0.008987 0.016043 0.922660 0.385281 189 181 168
-0.079494 0.064262 -0.010196 -0.314188 -0.948907 0.029359 126 138 124
-0.073711 0.068022 -0.009590 0.028219 0.971774 0.234220 182 166 152
-0.073608 0.066614 -0.008114 -0.103294 0.340130 0.934688 197 193 184
-0.072987 0.067433 -0.008535 0.015242 0.676309 0.736460 197 190 178
-0.074081 0.066105 -0.008027 -0.103631 0.147971 0.983547 194 192 181
-0.073054 0.067042 -0.008237 -0.101897 0.422252 0.900734 200 198 183
-0.072849 0.067759 -0.008902 0.047631 0.920708 0.387334 187 183 167
-0.074367 0.068052 -0.010519 0.002527 0.994944 -0.100408 82 98 92
-0.073157 0.067979 -0.009508 0.053952 0.977614 0.203370 180 167 150
-0.073565 0.066078 -0.007936 -0.127742 0.234784 0.963618 194 192 185
-0.073056 0.066557 -0.008037 -0.083415 0.332775 0.939310 199 200 190
-0.074011 0.065681 -0.007980 -0.169228 0.061900 0.983631 191 193 185
-0.077217 0.064045 -0.008867 0.024757 -0.940807 0.338039 165 173 168
-0.074482 0.065376 -0.008051 -0.063356 -0.103029 0.992659 190 190 184
-0.077629 0.063986 -0.009149 -0.039016 -0.973440 0.225593 164 163 154
-0.076774 0.064183 -0.008668 0.032493 -0.635804 0.771167 169 175 166
-0.075847 0.064675 -0.008439 0.048849 -0.549981 0.833747 175 176 168
-0.076304 0.064430 -0.008555 0.093913 -0.545964 0.832529 168 170 162
-0.074946 0.065108 -0.008165 -0.039807 -0.371863 0.927434 196 198 185
-0.075401 0.064892 -0.008307 -0.017984 -0.520074 0.853933 194 191 175
-0.079200 0.064140 -0.010611 -0.316692 -0.946830 0.056738 69 75 90
-0.073852 0.068062 -0.010399 0.006547 0.998458 -0.055134 119 104 98
-0.078826 0.064017 -0.010176 -0.334222 -0.942450 0.009127 113 115 110
-0.078461 0.063897 -0.009764 -0.180180 -0.975571 0.125690 132 139 126
-0.078035 0.063939 -0.009467 -0.050847 -0.975780 0.212762 149 158 146
-0.072493 0.066957 -0.008148 -0.013659 0.493766 0.869487 204 206 196
-0.072368 0.067351 -0.008473 0.222038 0.654824 0.722430 201 199 188
-0.072313 0.067695 -0.008824 0.226816 0.776974 0.587254 190 178 163
-0.072628 0.067915 -0.009408 0.067453 0.952887 0.295730 182 162 153
-0.073371 0.068061 -0.010220 0.027275 0.998018 0.056718 146 123 100
-0.072994 0.066003 -0.007859 -0.088871 0.105786 0.990410 197 198 192
-0.072471 0.066465 -0.007966 -0.070053 0.325918 0.942799 202 206 197
-0.072417 0.065956 -0.007805 -0.074893 -0.011727 0.997123 198 201 192
-0.071851 0.067826 -0.009328 0.396733 0.717262 0.572833 182 175 158
-0.071863 0.067468 -0.008971 0.509610 0.597731 0.618883 190 177 163
-0.071879 0.067109 -0.008612 0.503779 0.606392 0.615219 206 206 193
-0.074276 0.064890 -0.008222 -0.041599 -0.517404 0.854730 185 186 178
-0.073130 0.068064 -0.010647 -0.004931 0.999984 0.002462 55 52 63
-0.078159 0.063785 -0.010222 -0.067962 -0.990602 0.118687 87 74 74
-0.075170 0.064506 -0.008548 -0.044075 -0.554225 0.831199 184 187 178
-0.072726 0.068067 -0.010321 0.034230 0.999170 -0.022069 76 108 100
-0.073818 0.065122 -0.008100 -0.055079 -0.341825 0.938148 188 190 181
-0.077333 0.063870 -0.009640 -0.030142 -0.981391 0.189638 134 138 120
-0.076916 0.063921 -0.009361 0.015282 -0.970038 0.242473 144 148 139
-0.077745 0.063828 -0.009937 -0.027268 -0.986496 0.161497 113 110 102
-0.074726 0.064693 -0.008392 -0.055021 -0.571425 0.818809 184 185 183
-0.072891 0.065634 -0.007894 -0.082317 -0.152253 0.984908 192 195 189
-0.073358 0.065365 -0.007992 -0.062525 -0.275777 0.959186 188 193 181
-0.071884 0.066411 -0.007899 0.010893 0.472943 0.881026 208 205 197
-0.076483 0.064038 -0.009137 0.108616 -0.941264 0.319728 151 155 152
-0.076042 0.064164 -0.008930 0.080705 -0.939383 0.333237 161 165 160
-0.075613 0.064287 -0.008711 0.033336 -0.745458 0.665718 172 180 166
-0.071803 0.066717 -0.008260 0.209547 0.778939 0.591053 208 209 203
-0.072291 0.068000 -0.010021 0.041665 0.983946 0.173534 146 148 127
-0.077644 0.063811 -0.010091 -0.010057 -0.999936 0.005060 86 80 78
-0.071253 0.066669 -0.008149 -0.012793 0.743733 0.668354 209 208 202
-0.071569 0.066948 -0.008714 0.297547 0.743443 0.598964 208 208 195
-0.071319 0.066293 -0.007848 -0.026343 0.436901 0.899124 206 205 196
-0.071448 0.067247 -0.009103 0.382314 0.665274 0.641286 196 182 167
-0.071634 0.068011 -0.010134 -0.060010 0.995290 0.076141 158 128 102
-0.076632 0.063814 -0.009819 0.046642 -0.972410 0.228566 93 86 89
-0.072026 0.067995 -0.010487 0.083644 0.984073 -0.156858 90 63 81
-0.076206 0.063921 -0.009588 0.105020 -0.953020 0.284117 127 132 115
-0.074496 0.064330 -0.008634 0.060182 -0.841220 0.537334 162 167 166
-0.075767 0.064041 -0.009372 0.119803 -0.956871 0.264660 156 162 148
-0.075346 0.064128 -0.009125 0.045803 -0.962605 0.267008 165 172 160
-0.073149 0.064918 -0.008172 0.004295 -0.631199 0.775609 170 172 169
-0.074917 0.064228 -0.008884 0.022354 -0.937414 0.347500 162 169 174
-0.077034 0.063780 -0.010137 -0.092696 -0.995684 0.004493 63 60 76
-0.072696 0.065126 -0.008026 0.010622 -0.550101 0.835031 178 180 180
-0.074039 0.064515 -0.008481 0.085928 -0.730408 0.677585 161 167 166
-0.071769 0.065628 -0.007812 -0.055547 -0.228367 0.971989 190 195 185
-0.073586 0.064724 -0.008344 -0.008015 -0.690746 0.723053 166 172 168
-0.071049 0.066915 -0.008608 -0.134619 0.818749 0.558147 207 209 199
-0.071299 0.067559 -0.009493 0.089087 0.716672 0.691697 183 178 161
-0.072223 0.065354 -0.007920 -0.046757 -0.319125 0.946558 178 181 178
-0.071285 0.065891 -0.007736 -0.061883 0.108792 0.992136 195 199 188
-0.071239 0.067886 -0.009810 -0.015505 0.823676 0.566848 168 163 143
-0.071200 0.067959 -0.009866 -0.168662 0.846807 0.504451 168 163 143
-0.070679 0.066625 -0.008087 -0.196016 0.737027 0.646814 206 209 202
-0.070932 0.067247 -0.008971 -0.265839 0.747109 0.609228 193 187 173
-0.070741 0.066225 -0.007774 -0.142226 0.502093 0.853038 203 206 193
-0.070581 0.066922 -0.008402 -0.286537 0.749211 0.597143 205 208 196
-0.077330 0.063881 -0.010705 -0.075364 -0.991638 -0.104763 38 43 41
-0.070221 0.066670 -0.007893 -0.180574 0.594845 0.783296 205 210 200
-0.070524 0.067194 -0.008716 -0.276716 0.754534 0.595069 194 200 189
-0.070711 0.067921 -0.009677 -0.187718 0.806446 0.560719 175 170 145
-0.070574 0.067577 -0.009211 -0.268340 0.736896 0.620467 186 165 152
-0.070120 0.067039 -0.008330 -0.266370 0.765224 0.586071 204 209 195
-0.071867 0.067932 -0.010757 0.076060 0.983650 -0.163244 74 15 27
-0.070250 0.066203 -0.007665 -0.029683 0.369547 0.928738 203 206 194
-0.070983 0.068106 -0.010319 -0.049689 0.989608 0.134928 57 75 91
-0.069968 0.067542 -0.008904 -0.255821 0.755456 0.603194 186 167 156
-0.069610 0.067019 -0.008070 -0.132024 0.657434 0.741855 205 208 200
-0.070173 0.067896 -0.009574 0.078334 0.983021 0.165930 172 168 155
-0.069482 0.067283 -0.008384 -0.157087 0.778064 0.608227 201 207 188
-0.074219 0.064191 -0.009061 0.092819 -0.935620 0.340588 158 163 159
-0.071548 0.065246 -0.008003 0.093010 -0.791722 0.603759 168 172 168
-0.075911 0.063828 -0.010077 0.172449 -0.958594 0.226624 51 50 62
-0.069629 0.066565 -0.007859 -0.032443 0.372139 0.927610 202 209 198
-0.076332 0.063721 -0.010319 0.039095 -0.980704 0.191548 37 34 27
-0.074631 0.064109 -0.009344 0.055074 -0.983146 0.174330 155 166 153
-0.072003 0.065008 -0.008157 0.189574 -0.743151 0.641707 163 169 168
-0.072905 0.064593 -0.008459 0.054454 -0.720317 0.691504 159 166 161
-0.073779 0.064279 -0.008840 0.115025 -0.963149 0.243130 155 165 164
-0.075046 0.064042 -0.009622 0.042913 -0.984254 0.171475 147 152 133
-0.072459 0.064785 -0.008300 0.091785 -0.710521 0.697664 162 166 164
-0.075462 0.063978 -0.009893 0.142338 -0.976871 0.159567 111 114 104
-0.071320 0.067914 -0.010681 -0.084763 0.971694 -0.220515 74 34 53
-0.076720 0.063771 -0.010701 -0.181623 -0.980583 -0.073964 40 39 37
-0.071097 0.065416 -0.007866 0.000377 -0.491752 0.870735 174 176 169
-0.069357 0.067668 -0.008836 -0.050488 0.893195 0.446825 174 182 171
-0.070637 0.065668 -0.007772 -0.016861 -0.229899 0.973069 180 186 174
-0.073340 0.064390 -0.008641 0.008454 -0.790082 0.612943 156 165 159
-0.069084 0.067018 -0.008005 -0.057945 0.617017 0.784813 201 209 199
-0.070457 0.068042 -0.010215 0.151926 0.975420 0.159608 94 106 87
-0.069632 0.067852 -0.009476 0.041937 0.987076 0.154663 175 174 164
-0.068958 0.067311 -0.008358 -0.062267 0.776178 0.627432 197 205 192
-0.069104 0.066526 -0.007784 -0.080279 0.344156 0.935475 199 207 198
-0.068816 0.067616 -0.008741 0.028428 0.924992 0.378920 194 196 181
-0.075747 0.063813 -0.010373 0.327790 -0.935415 0.132483 42 41 36
-0.069561 0.066010 -0.007682 -0.026195 0.030484 0.999192 199 200 190
-0.069102 0.067815 -0.009365 0.055497 0.990092 0.128986 182 184 171
-0.068499 0.066898 -0.007938 -0.014436 0.499970 0.865923 204 206 199
-0.068407 0.067268 -0.008264 -0.048563 0.778507 0.625754 199 205 196
-0.069963 0.065523 -0.007797 -0.011260 -0.505383 0.862822 171 170 169
-0.076032 0.063649 -0.010809 0.109212 -0.993723 0.024242 34 31 24
-0.073048 0.064377 -0.009154 0.182668 -0.980764 0.068814 158 164 163
-0.069046 0.066002 -0.007616 -0.079619 0.130092 0.988300 198 200 191
-0.072621 0.064470 -0.008911 0.182570 -0.981182 0.062845 157 162 160
-0.072204 0.064567 -0.008679 0.221393 -0.866946 0.446531 156 161 160
-0.074745 0.063975 -0.010132 0.046016 -0.987381 0.151528 64 77 87
-0.069790 0.067918 -0.010266 0.161673 0.981838 0.099277 126 103 79
-0.074324 0.064044 -0.009869 0.104281 -0.983141 0.150196 109 132 121
-0.071279 0.065003 -0.008404 0.119796 -0.866659 0.484305 161 164 164
-0.070156 0.068083 -0.010745 0.196860 0.969257 0.147604 18 0 2
-0.070841 0.065153 -0.008208 0.094987 -0.892296 0.441346 159 164 161
-0.070398 0.065320 -0.008023 0.050265 -0.793534 0.606446 160 165 163
-0.071713 0.064833 -0.008584 0.208796 -0.841651 0.498024 159 162 161
-0.075154 0.063926 -0.010430 -0.019994 -0.992973 0.116642 45 42 47
-0.073891 0.064152 -0.009644 0.197409 -0.970981 0.135003 150 156 144
-0.068569 0.066437 -0.007722 -0.044630 0.381763 0.923182 201 204 193
-0.069400 0.067859 -0.009908 0.084478 0.995637 0.039620 162 164 130
-0.068254 0.067562 -0.008663 0.022617 0.903569 0.427846 194 197 188
-0.073449 0.064279 -0.009443 0.216740 -0.971513 0.095848 155 160 156
-0.068587 0.067765 -0.009246 0.062233 0.973006 0.222229 186 187 177
-0.076336 0.063736 -0.011379 -0.052557 -0.991022 -0.122937 22 20 17
-0.067858 0.067214 -0.008151 -0.004851 0.733112 0.680091 200 204 195
-0.067928 0.066822 -0.007876 -0.028046 0.538940 0.841877 204 206 197
-0.075439 0.063892 -0.010957 0.230883 -0.970359 0.071382 22 26 19
-0.075828 0.063737 -0.011240 0.193268 -0.975165 -0.108174 23 22 7
-0.067679 0.067521 -0.008602 0.024573 0.934237 0.355802 192 196 188
-0.067931 0.066318 -0.007642 -0.034946 0.286096 0.957563 203 202 191
-0.073220 0.064294 -0.009857 0.278838 -0.951669 0.128749 149 156 144
-0.072790 0.064404 -0.009634 0.191446 -0.980774 0.037801 154 161 151
-0.067294 0.067155 -0.008098 -0.007339 0.693412 0.720505 202 204 194
-0.072344 0.064499 -0.009425 0.193035 -0.980381 0.039870 156 160 157
-0.067371 0.066756 -0.007803 -0.033046 0.569268 0.821488 202 205 196
-0.071885 0.064598 -0.009239 0.207346 -0.977796 0.030377 156 161 157
-0.071440 0.064696 -0.008991 0.207437 -0.967285 0.146048 156 162 162
-0.073597 0.064145 -0.010178 0.263620 -0.957097 0.120291 100 107 107
-0.074028 0.064011 -0.010392 0.184416 -0.974845 0.125166 55 51 54
-0.068365 0.065781 -0.007663 -0.017472 -0.420371 0.907184 178 180 175
-0.068821 0.065557 -0.007798 -0.030363 -0.632762 0.773751 161 164 164
-0.067917 0.067704 -0.009334 0.024558 0.992294 0.121451 179 182 175
-0.070123 0.065156 -0.008446 0.186180 -0.931329 0.312991 154 160 158
-0.069691 0.065288 -0.008234 0.114788 -0.960743 0.252578 161 160 161
-0.069090 0.067839 -0.010446 0.116206 0.993174 0.010088 68 91 89
-0.069477 0.067903 -0.010836 0.181520 0.981796 0.055914 4 0 28
-0.074436 0.063923 -0.010670 0.127448 -0.985326 0.113528 51 50 48
-0.074857 0.063849 -0.010933 0.002076 -0.991123 0.132937 26 22 18
-0.070555 0.065007 -0.008656 0.160963 -0.910048 0.381973 156 162 159
-0.069259 0.065383 -0.008004 0.015576 -0.913419 0.406724 158 161 160
-0.071000 0.064824 -0.008852 0.169217 -0.896691 0.409036 158 160 156
-0.068296 0.067759 -0.009760 0.092901 0.995283 0.027953 161 177 155
-0.068689 0.067797 -0.010127 0.092941 0.995672 0.000620 117 150 117
-0.067145 0.067443 -0.008503 0.015997 0.835727 0.548911 194 197 188
-0.067437 0.067650 -0.009121 0.002379 0.970430 0.241368 184 187 181
-0.067340 0.066236 -0.007606 -0.024819 0.278039 0.960249 200 198 188
-0.066722 0.067097 -0.008031 0.068816 0.682836 0.727324 204 205 197
-0.066797 0.066676 -0.007736 -0.013745 0.411881 0.911134 202 206 199
-0.066600 0.067388 -0.008417 0.001417 0.861528 0.507708 197 200 191
-0.066920 0.067618 -0.008999 0.013966 0.975106 0.221301 186 188 181
-0.068848 0.067801 -0.010869 0.122976 0.992233 -0.018690 0 20 45
-0.071597 0.064646 -0.009784 0.215136 -0.976052 0.032211 157 163 154
-0.071160 0.064748 -0.009563 0.194624 -0.980341 0.032445 151 162 156
-0.070713 0.064832 -0.009352 0.141023 -0.989729 0.023433 152 159 157
-0.066777 0.066148 -0.007563 -0.015365 0.277174 0.960697 194 196 187
-0.070273 0.064892 -0.009112 0.200573 -0.956947 0.209817 152 158 155
-0.067590 0.067734 -0.009941 -0.056318 0.998253 0.017875 163 161 137
-0.068970 0.065273 -0.008466 0.091284 -0.976068 0.197377 156 161 156
-0.068560 0.065319 -0.008184 -0.136524 -0.980097 0.144123 153 160 154
-0.066307 0.066943 -0.008070 0.318486 0.584017 0.746653 204 206 198
-0.072819 0.064309 -0.010594 0.274035 -0.956218 0.102726 69 55 62
-0.072378 0.064472 -0.010406 0.215003 -0.973403 0.079119 98 101 88
-0.068146 0.065337 -0.007875 -0.090001 -0.798405 0.595356 157 160 160
-0.067987 0.067737 -0.010284 0.039943 0.999200 -0.002006 131 128 94
-0.068385 0.067761 -0.010636 0.098096 0.994894 -0.023697 24 38 44
-0.066104 0.067342 -0.008335 0.300069 0.714525 0.631990 200 202 193
-0.067239 0.065785 -0.007615 -0.027549 -0.251319 0.967512 173 174 167
-0.069389 0.065180 -0.008730 0.069541 -0.965620 0.250482 153 162 158
-0.067697 0.065541 -0.007736 -0.054180 -0.474669 0.878496 162 165 162
-0.066282 0.066576 -0.007689 0.220303 0.556857 0.800861 200 207 202
-0.071947 0.064554 -0.010167 0.192814 -0.979564 0.057243 133 146 126
-0.069807 0.065080 -0.008983 0.196244 -0.939961 0.279216 159 160 155
-0.067170 0.067754 -0.009663 -0.020286 0.998161 0.057123 171 166 146
-0.073242 0.064173 -0.010827 0.292833 -0.952236 0.086570 18 21 27
-0.066402 0.067581 -0.008885 0.054023 0.955803 0.289002 189 190 183
-0.073632 0.064012 -0.011106 0.256746 -0.960881 0.103878 21 19 18
-0.066636 0.067730 -0.009564 0.027637 0.985002 0.170315 175 179 166
-0.066154 0.066008 -0.007530 -0.048860 -0.200744 0.978425 198 200 194
-0.065680 0.067085 -0.008518 0.476959 0.575000 0.664745 202 203 196
-0.069529 0.064993 -0.009445 0.155290 -0.965010 0.211284 156 159 155
-0.065718 0.066719 -0.008172 0.411789 0.591526 0.693201 204 206 203
-0.069104 0.065094 -0.009213 0.203391 -0.955822 0.212218 152 162 159
-0.072925 0.064240 -0.011427 0.310527 -0.948846 0.057141 16 15 14
-0.069939 0.064901 -0.009703 0.120826 -0.991111 0.055677 150 161 155
-0.067451 0.065238 -0.008032 0.022017 -0.851784 0.523430 153 159 154
-0.066567 0.065562 -0.007656 -0.044701 -0.327190 0.943901 162 166 164
-0.067014 0.065372 -0.007820 0.008895 -0.846394 0.532482 155 159 157
-0.067672 0.067729 -0.010849 -0.039727 0.999145 -0.011397 34 2 18
-0.067052 0.067785 -0.010403 -0.049427 0.998550 0.021335 47 61 93
-0.067259 0.067771 -0.010557 -0.090001 0.995884 0.010739 33 48 80
-0.071639 0.064549 -0.010719 0.182093 -0.974949 0.127733 55 48 35
-0.066456 0.067761 -0.009892 0.041900 0.995992 0.079020 133 159 144
-0.068079 0.067713 -0.011164 0.044905 0.998562 -0.029267 4 0 2
-0.065611 0.067426 -0.008861 0.389291 0.705258 0.592506 193 193 189
-0.068246 0.065256 -0.008718 -0.169009 -0.985363 -0.022255 152 159 153
-0.067872 0.065093 -0.008242 -0.121319 -0.966019 0.228230 154 159 157
-0.070771 0.064771 -0.010274 0.167111 -0.983003 0.076017 137 147 130
-0.070350 0.064850 -0.010019 0.113827 -0.993171 0.025594 147 154 146
-0.065712 0.066342 -0.007819 0.164521 0.702382 0.692525 200 206 200
-0.066061 0.067705 -0.009547 0.059350 0.985903 0.156435 176 182 168
-0.071192 0.064672 -0.010526 0.177547 -0.975899 0.126878 112 116 106
-0.068627 0.065253 -0.009059 0.066266 -0.978950 0.193043 154 160 156
-0.066818 0.067787 -0.010314 0.013143 0.999552 0.026874 16 69 93
-0.065541 0.065910 -0.007505 0.049332 0.279858 0.958773 197 199 194
-0.065541 0.067631 -0.009411 0.123428 0.935123 0.332129 181 183 173
-0.065350 0.066616 -0.008199 -0.067515 0.830543 0.552849 203 206 203
-0.065203 0.066905 -0.008605 0.074726 0.731761 0.677453 201 204 197
-0.064502 0.066342 -0.007499 -0.295922 0.500508 0.813586 193 203 198
-0.065084 0.067275 -0.008964 0.053375 0.761174 0.646347 190 191 188
-0.064923 0.066212 -0.007771 -0.190903 0.645924 0.739147 198 205 200
-0.065051 0.065834 -0.007481 -0.171954 0.254294 0.951718 194 197 195
-0.064809 0.066587 -0.008080 -0.219803 0.770105 0.598854 201 208 201
-0.064997 0.067584 -0.009288 -0.039064 0.863191 0.503364 183 184 177
-0.068383 0.065111 -0.009439 0.062245 -0.962256 0.264931 154 163 157
-0.069223 0.064969 -0.009979 0.113102 -0.993551 0.007944 152 159 147
-0.068803 0.065032 -0.009722 0.118014 -0.979860 0.161077 158 164 155
-0.064388 0.066672 -0.007865 -0.418653 0.747555 0.515646 202 205 200
-0.066318 0.065289 -0.007987 0.012462 -0.889648 0.456478 145 161 156
-0.065436 0.065586 -0.007585 -0.039958 -0.474138 0.879543 170 173 170
-0.067157 0.065109 -0.008483 0.058440 -0.989405 -0.132901 154 159 152
-0.070469 0.064748 -0.010809 0.148077 -0.976205 0.158418 60 55 59
-0.070896 0.064642 -0.011046 0.166564 -0.972451 0.163082 43 38 38
-0.066140 0.067750 -0.010457 0.010689 0.995946 -0.089315 86 45 48
-0.065881 0.065405 -0.007770 -0.004898 -0.849519 0.527535 159 165 158
-0.066743 0.065161 -0.008222 0.028423 -0.880604 0.473001 150 158 151
-0.063941 0.066770 -0.007642 -0.241352 0.744355 0.622643 205 205 199
-0.069617 0.064932 -0.010327 0.115815 -0.992979 0.024073 138 143 128
-0.070034 0.064849 -0.010582 0.144443 -0.979245 0.142180 89 91 95
-0.065737 0.067733 -0.010139 0.059866 0.997562 0.035864 133 109 105
-0.067923 0.065218 -0.009265 -0.057178 -0.995148 0.080075 154 158 156
-0.065345 0.067677 -0.009777 0.086051 0.992654 0.085045 169 168 140
-0.064699 0.066903 -0.008467 -0.318548 0.759497 0.567179 200 201 196
-0.064212 0.066997 -0.008204 -0.409558 0.754730 0.512488 197 195 187
-0.063820 0.067073 -0.008022 -0.147781 0.842239 0.518453 199 197 184
-0.064563 0.067254 -0.008830 -0.161475 0.794872 0.584897 189 185 179
-0.067510 0.065114 -0.008971 -0.051056 -0.994198 -0.094674 159 161 158
-0.064483 0.067529 -0.009182 0.015942 0.916346 0.400070 181 179 171
-0.069061 0.064990 -0.010292 0.112568 -0.993640 0.002831 133 148 126
-0.063934 0.066258 -0.007466 -0.039411 0.114520 0.992639 199 204 198
-0.063388 0.066707 -0.007564 -0.026956 0.692570 0.720846 205 205 197
-0.063839 0.067273 -0.008544 -0.157538 0.913623 0.374801 178 164 156
-0.068596 0.065047 -0.010101 0.126609 -0.991830 0.015595 151 154 138
-0.063267 0.067007 -0.007947 0.000978 0.789446 0.613818 197 200 185
-0.066498 0.065154 -0.008651 0.000160 -0.980623 -0.195908 148 158 149
-0.067688 0.065192 -0.009683 0.088720 -0.995248 0.040115 160 160 153
-0.063989 0.067500 -0.009137 -0.061036 0.934710 0.350131 177 173 166
-0.069740 0.064803 -0.011092 0.140749 -0.976443 0.163546 35 23 31
-0.069312 0.064904 -0.010855 0.144086 -0.975841 0.164239 50 48 52
-0.063109 0.067304 -0.008340 -0.036594 0.910155 0.412648 181 172 163
-0.065185 0.065312 -0.007926 -0.009519 -0.925015 0.379810 159 165 160
-0.066045 0.065097 -0.008407 -0.020252 -0.998769 0.045289 158 159 153
-0.070161 0.064699 -0.011342 0.141446 -0.980521 0.136279 16 32 17
-0.065425 0.067727 -0.010683 0.088291 0.994609 -0.054382 5 0 32
-0.065842 0.067665 -0.010958 -0.024488 0.983025 -0.181830 2 0 0
-0.064307 0.065632 -0.007558 0.026559 -0.678417 0.734197 174 176 172
-0.064751 0.065444 -0.007723 0.013658 -0.694787 0.719085 166 170 165
-0.064646 0.067605 -0.009923 0.137604 0.990461 -0.007276 131 154 136
-0.065608 0.065210 -0.008178 0.008242 -0.914528 0.404438 159 163 154
-0.068043 0.065124 -0.010078 0.120843 -0.991409 0.050059 152 158 138
-0.064250 0.067561 -0.009573 0.046447 0.997684 0.049685 173 173 165
-0.063851 0.065817 -0.007414 -0.020976 -0.171131 0.985025 177 182 174
-0.067200 0.065251 -0.009546 0.120674 -0.992407 -0.023803 155 162 157
-0.065032 0.067664 -0.010334 0.161601 0.985867 -0.044187 60 80 98
-0.068864 0.065007 -0.010654 0.125850 -0.987934 0.090269 91 94 89
-0.062840 0.066636 -0.007472 -0.027948 0.474106 0.880025 200 204 196
-0.063365 0.066137 -0.007430 -0.036312 0.113334 0.992893 202 204 195
-0.063407 0.067489 -0.008957 0.015634 0.989776 0.141770 175 173 167
-0.066741 0.065260 -0.009332 0.040154 -0.992984 -0.111228 154 159 156
-0.062692 0.066946 -0.007871 -0.000688 0.785401 0.618988 198 199 194
-0.062539 0.067260 -0.008267 0.026969 0.901281 0.432395 184 183 173
-0.066245 0.065255 -0.009183 0.005904 -0.991927 -0.126673 151 156 155
-0.069985 0.064697 -0.011658 0.133117 -0.987801 0.080798 30 34 27
-0.062265 0.066586 -0.007428 -0.060286 0.505729 0.860583 196 200 197
-0.062853 0.067458 -0.008874 0.031564 0.986932 0.158016 176 173 164
-0.069084 0.064874 -0.011253 0.152704 -0.977051 0.148508 31 34 21
-0.062163 0.066882 -0.007789 0.006484 0.776242 0.630402 198 202 196
-0.065339 0.065048 -0.008564 0.035207 -0.998710 0.036595 156 163 158
-0.064911 0.065147 -0.008343 0.055169 -0.979767 0.192391 156 163 158
-0.066902 0.065252 -0.010078 0.124211 -0.989886 0.068528 146 154 137
-0.068575 0.064973 -0.011157 0.131939 -0.989788 0.053962 29 35 32
-0.067317 0.065180 -0.010354 0.115691 -0.990165 0.078662 126 133 113
-0.064484 0.065237 -0.008105 0.027680 -0.953202 0.301064 156 166 161
-0.063940 0.067561 -0.010120 -0.037619 0.999087 0.020231 129 118 114
-0.062703 0.065919 -0.007383 -0.105957 -0.036120 0.993714 184 188 181
-0.067732 0.065116 -0.010634 0.100747 -0.991751 0.079250 98 85 84
-0.064746 0.067544 -0.010771 0.197979 0.970571 -0.137099 0 20 38
-0.064344 0.067540 -0.010439 0.082746 0.995550 -0.045082 57 57 75
-0.069423 0.064773 -0.011652 0.197231 -0.980020 0.025719 27 21 21
-0.068149 0.065051 -0.010909 0.102058 -0.989201 0.105192 59 48 50
-0.062003 0.067193 -0.008171 0.101572 0.851173 0.514964 197 190 185
-0.065691 0.065232 -0.009105 -0.068609 -0.977679 -0.198583 154 159 154
-0.064056 0.065320 -0.007871 0.045039 -0.870758 0.489645 159 169 163
-0.066079 0.065277 -0.009476 -0.033927 -0.997371 -0.064023 150 157 154
-0.063531 0.067558 -0.009810 0.004553 0.997759 0.066749 162 157 133
-0.063135 0.067514 -0.009465 0.068438 0.996036 0.056813 175 177 163
-0.063476 0.065556 -0.007675 -0.038114 -0.727654 0.684885 163 166 161
-0.062307 0.067420 -0.008782 0.045099 0.959386 0.278469 177 175 164
-0.061718 0.066512 -0.007352 -0.030181 0.557557 0.829590 199 202 199
-0.062224 0.066012 -0.007292 -0.163565 0.024269 0.986234 190 192 190
-0.066400 0.065315 -0.009969 -0.002967 -0.998789 -0.049116 151 154 144
-0.061604 0.066815 -0.007714 0.137291 0.810099 0.569992 203 202 195
-0.068804 0.064969 -0.011800 0.143514 -0.988657 -0.044279 33 26 30
-0.063734 0.067591 -0.010507 -0.056228 0.996977 0.053611 96 25 46
-0.061780 0.067357 -0.008686 0.073368 0.946509 0.314226 182 184 177
-0.065068 0.065156 -0.009079 0.046636 -0.979351 -0.196716 156 161 156
-0.064649 0.065215 -0.008857 0.130409 -0.988170 -0.080709 159 162 158
-0.061127 0.066433 -0.007285 0.112767 0.759241 0.640966 207 210 202
-0.061655 0.065940 -0.007210 -0.110031 0.061187 0.992043 191 189 188
-0.068296 0.064970 -0.011662 0.036708 -0.998945 0.027592 27 36 25
-0.063238 0.067607 -0.010354 0.063179 0.994697 0.081151 47 49 74
-0.064174 0.065220 -0.008644 0.051329 -0.996668 -0.063391 161 165 162
-0.067002 0.065165 -0.010918 0.099752 -0.987954 0.118308 36 39 42
-0.063762 0.065229 -0.008350 0.038159 -0.995858 0.082518 158 169 161
-0.067838 0.065021 -0.011457 0.099976 -0.990527 0.094131 26 36 22
-0.062428 0.067483 -0.009651 0.037735 0.999281 -0.003498 160 176 152
-0.067417 0.065095 -0.011193 0.083267 -0.994385 0.065301 33 38 21
-0.062830 0.067486 -0.009982 0.128153 0.991526 0.021298 136 157 142
-0.065759 0.065286 -0.010052 -0.044949 -0.998901 -0.013315 150 152 140
-0.062028 0.067460 -0.009313 0.041936 0.998326 0.039852 178 179 172
-0.066565 0.065249 -0.010693 0.100041 -0.984022 0.147280 77 81 86
-0.062475 0.065439 -0.007579 -0.139627 -0.870346 0.472233 167 172 166
-0.061233 0.066976 -0.008194 0.298327 0.806572 0.510336 194 198 189
-0.062075 0.065512 -0.007332 -0.165523 -0.416727 0.893835 169 171 166
-0.064952 0.065226 -0.009380 0.015684 -0.994939 -0.099243 154 161 156
-0.063358 0.065298 -0.008159 0.012231 -0.959579 0.281172 161 168 163
-0.066137 0.065321 -0.010468 0.026640 -0.994904 0.097238 120 126 106
-0.065335 0.065257 -0.009750 -0.019840 -0.997643 -0.065690 154 158 147
-0.062892 0.065364 -0.007925 -0.055656 -0.928652 0.366753 157 165 159
-0.061224 0.067268 -0.008641 0.257721 0.836729 0.483181 187 189 180
-0.060911 0.066603 -0.007779 0.261407 0.866642 0.424970 206 206 195
-0.060565 0.066337 -0.007228 0.000557 0.513468 0.858108 206 210 204
-0.061059 0.065832 -0.007155 -0.080378 0.020255 0.996559 176 175 175
-0.064298 0.065256 -0.009500 0.038086 -0.998426 -0.041185 157 163 160
-0.060929 0.067407 -0.009108 0.101056 0.970338 0.219621 188 190 179
-0.060017 0.066262 -0.007183 -0.141136 0.803851 0.577845 204 209 203
-0.060656 0.066731 -0.008221 0.281547 0.815969 0.504901 196 200 191
-0.062228 0.065262 -0.007956 -0.123082 -0.962056 0.243516 162 164 161
-0.061819 0.065292 -0.007659 -0.114410 -0.942561 0.313831 165 168 162
-0.063036 0.065247 -0.008612 0.005019 -0.998904 -0.046544 162 164 157
-0.065048 0.065254 -0.010259 -0.039506 -0.997501 0.058583 133 138 120
-0.061711 0.067463 -0.009880 0.049947 0.998370 0.027584 159 159 136
-0.066276 0.065169 -0.011175 0.022206 -0.985939 0.165624 39 42 42
-0.065447 0.065253 -0.010590 -0.049350 -0.991543 0.120026 69 83 78
-0.061392 0.065365 -0.007404 -0.128260 -0.860354 0.493294 159 161 156
-0.062633 0.065238 -0.008282 -0.048320 -0.993908 0.099055 159 167 160
-0.060493 0.065779 -0.007113 -0.073659 0.066910 0.995036 172 175 176
-0.060963 0.065473 -0.007182 -0.104399 -0.279353 0.954496 162 164 164
-0.063832 0.065266 -0.009304 0.036409 -0.998675 -0.036370 159 165 162
-0.063429 0.065265 -0.008976 0.008622 -0.999170 -0.039812 158 164 158
-0.065858 0.065213 -0.010902 -0.049419 -0.976394 0.210265 39 35 38
-0.064639 0.065259 -0.009957 0.012467 -0.999915 0.003567 155 157 140
-0.061311 0.067430 -0.009549 0.083069 0.996389 0.017537 177 184 159
-0.060283 0.066480 -0.007773 -0.033088 0.950251 0.309723 207 209 202
-0.059830 0.066540 -0.007582 -0.314652 0.909483 0.271727 208 209 205
-0.060517 0.067051 -0.008703 0.191192 0.786494 0.587258 194 194 188
-0.059394 0.066596 -0.007331 -0.123858 0.768757 0.627434 208 210 203
-0.066558 0.065180 -0.011726 0.065219 -0.996465 -0.052955 54 48 45
-0.060390 0.067356 -0.009072 0.088620 0.899743 0.427328 189 190 186
-0.059405 0.066146 -0.007118 -0.065952 0.321730 0.944532 196 201 197
-0.059196 0.066837 -0.007786 -0.291795 0.890349 0.349475 200 201 196
-0.060036 0.066638 -0.008294 0.016704 0.881603 0.471698 200 202 197
-0.061062 0.067425 -0.009978 0.095094 0.994536 0.043071 132 143 116
-0.058833 0.066559 -0.007268 -0.066605 0.675279 0.734549 202 208 202
-0.063970 0.065278 -0.010117 0.031349 -0.998835 0.036685 136 151 130
-0.059922 0.066941 -0.008679 -0.074333 0.784812 0.615260 193 192 185
-0.059848 0.065477 -0.007075 -0.070499 -0.509904 0.857338 167 169 167
-0.065162 0.065143 -0.011058 -0.041651 -0.971301 0.234178 17 22 25
-0.060705 0.065245 -0.007538 -0.078104 -0.938523 0.336267 157 161 159
-0.059364 0.065805 -0.007041 -0.090743 0.194481 0.976700 175 179 179
-0.062710 0.065275 -0.009215 -0.018225 -0.999285 -0.033146 155 158 154
-0.060614 0.067347 -0.009697 0.066400 0.997746 -0.009713 169 173 156
-0.064328 0.065250 -0.010506 0.044472 -0.997472 0.055422 104 85 90
-0.059542 0.066696 -0.008139 -0.363440 0.878776 0.309295 200 200 196
-0.061120 0.065178 -0.007819 -0.089953 -0.959146 0.268229 158 165 155
-0.061532 0.065144 -0.008122 -0.106378 -0.990618 0.085792 162 165 158
-0.060209 0.067349 -0.009375 0.059458 0.997648 0.034107 183 187 174
-0.065572 0.065089 -0.011357 -0.053669 -0.965414 0.255139 22 20 14
-0.060288 0.065302 -0.007279 -0.070115 -0.851651 0.519397 165 168 164
-0.061918 0.065211 -0.008510 -0.063407 -0.994941 -0.077922 160 166 161
-0.064738 0.065201 -0.010799 0.027403 -0.992113 0.122317 44 36 45
-0.062310 0.065249 -0.008880 -0.039437 -0.998588 -0.035567 152 161 155
-0.059056 0.067113 -0.008216 -0.255047 0.894825 0.366387 195 195 189
-0.058838 0.066083 -0.007042 -0.147455 0.268956 0.951798 199 204 196
-0.058664 0.066824 -0.007701 -0.039199 0.862118 0.505189 197 202 196
-0.063451 0.065294 -0.009992 0.014451 -0.999881 -0.005478 149 157 141
-0.059748 0.067291 -0.009091 -0.015754 0.959489 0.281307 188 187 176
-0.059406 0.067024 -0.008539 -0.284445 0.846151 0.450689 191 189 186
-0.058304 0.066517 -0.007150 -0.182205 0.682552 0.707761 202 208 201
-0.059272 0.067268 -0.008909 -0.034716 0.965406 0.258428 189 186 184
-0.062963 0.065294 -0.009830 -0.007633 -0.999795 -0.018757 154 159 146
-0.057829 0.066562 -0.006995 -0.281059 0.650090 0.705966 203 208 203
-0.058492 0.067091 -0.008134 -0.013767 0.930322 0.366485 192 195 189
-0.058328 0.066065 -0.006921 -0.254553 0.199561 0.946244 201 207 199
-0.065409 0.065009 -0.011613 0.005048 -0.975473 0.220063 26 25 16
-0.058131 0.066786 -0.007597 -0.030159 0.859846 0.509660 198 202 198
-0.057338 0.066603 -0.006843 -0.095361 0.591171 0.800889 202 208 203
-0.058784 0.067233 -0.008753 -0.086443 0.961505 0.260838 187 185 180
-0.057745 0.066092 -0.006737 -0.284882 0.193391 0.938851 205 206 200
-0.060839 0.065046 -0.008253 -0.095573 -0.995408 0.005362 155 159 151
-0.057963 0.067046 -0.008026 0.003506 0.897811 0.440367 193 196 194
-0.060011 0.065134 -0.007685 -0.070551 -0.941980 0.328169 162 166 163
-0.059591 0.065202 -0.007422 -0.033119 -0.934001 0.355730 162 167 164
-0.062391 0.065278 -0.009789 -0.037011 -0.999292 -0.006712 154 162 146
-0.058719 0.065483 -0.007015 -0.010072 -0.742745 0.669499 169 172 171
-0.060424 0.065075 -0.007973 -0.085897 -0.958080 0.273321 157 162 156
-0.061597 0.065227 -0.009090 -0.049217 -0.997648 -0.047724 158 162 160
-0.059884 0.067383 -0.009975 0.035164 0.997013 0.068760 150 114 118
-0.064855 0.065079 -0.011589 0.074004 -0.986348 0.147110 22 20 18
-0.059493 0.067327 -0.009603 0.061165 0.995290 0.075205 176 171 152
-0.061187 0.065180 -0.008714 -0.103684 -0.983936 -0.145321 157 161 157
-0.064015 0.065201 -0.011051 0.011773 -0.986490 0.163400 29 23 12
-0.057226 0.066701 -0.007105 0.034688 0.971086 0.236195 203 206 201
-0.059163 0.065297 -0.007206 -0.020285 -0.796622 0.604139 161 167 165
-0.063597 0.065254 -0.010778 0.015968 -0.988292 0.151731 52 41 53
-0.064429 0.065141 -0.011336 0.048276 -0.987422 0.150553 21 21 7
-0.059094 0.067291 -0.009264 0.038332 0.998171 0.046749 190 178 184
-0.063188 0.065285 -0.010480 0.006361 -0.998170 0.060121 93 87 92
-0.062784 0.065291 -0.010160 -0.027083 -0.999355 0.023563 132 135 120
-0.057592 0.066741 -0.007505 -0.004312 0.911506 0.411265 200 202 199
-0.057209 0.066132 -0.006626 -0.038875 0.265425 0.963348 202 204 198
-0.061913 0.065257 -0.009596 -0.043032 -0.998903 -0.018458 155 161 154
-0.058232 0.067212 -0.008670 0.014287 0.988362 0.151446 189 189 182
-0.058158 0.065557 -0.006908 -0.102329 -0.527622 0.843294 174 177 172
-0.057410 0.066988 -0.007939 0.028724 0.900781 0.433322 193 196 192
-0.056715 0.066444 -0.006831 0.160179 0.659455 0.734481 205 208 203
-0.057011 0.066667 -0.007424 0.057481 0.964359 0.258279 206 202 194
-0.057707 0.067189 -0.008554 0.021354 0.990052 0.139075 186 192 188
-0.060603 0.065089 -0.008713 -0.082428 -0.977704 -0.193133 152 158 157
-0.056741 0.065989 -0.006610 0.054695 0.156899 0.986099 198 198 192
-0.057037 0.065676 -0.006609 -0.139396 -0.138048 0.980567 188 191 184
-0.057475 0.065507 -0.006796 -0.270478 -0.452553 0.849727 177 181 176
-0.056351 0.066338 -0.006791 0.040611 0.776498 0.628810 205 207 200
-0.058892 0.065134 -0.007596 0.034830 -0.960172 0.277233 160 163 159
-0.059736 0.064970 -0.008113 -0.022940 -0.994270 0.104407 158 165 158
-0.058465 0.065207 -0.007333 -0.009141 -0.892386 0.451180 162 169 162
-0.061280 0.065226 -0.009658 -0.043800 -0.999033 -0.004013 151 157 153
-0.056855 0.066930 -0.007860 0.044183 0.902574 0.428263 198 194 190
-0.064135 0.065074 -0.011831 0.013464 -0.986561 0.162840 19 20 8
-0.061678 0.065243 -0.010008 -0.045848 -0.998917 0.007946 142 151 137
-0.063724 0.065107 -0.011531 -0.014775 -0.979482 0.200988 27 18 18
-0.059171 0.067351 -0.010193 0.102842 0.992542 0.065448 88 77 81
-0.058784 0.067279 -0.009803 0.079907 0.996792 -0.004453 136 151 137
-0.062077 0.065256 -0.010349 -0.043059 -0.998261 0.040261 94 105 97
-0.060096 0.065099 -0.008574 -0.067100 -0.991956 -0.107333 156 164 159
-0.060484 0.065167 -0.008961 -0.090652 -0.985084 -0.146256 154 161 157
-0.062478 0.065256 -0.010684 -0.029030 -0.997232 0.068448 52 50 68
-0.063304 0.065162 -0.011261 -0.001778 -0.974889 0.222683 27 21 11
-0.062881 0.065227 -0.010998 0.050144 -0.984151 0.170095 31 24 21
-0.057982 0.067242 -0.009136 0.040922 0.998248 0.042759 184 184 171
-0.059303 0.065038 -0.007886 0.030034 -0.984828 0.170919 158 164 159
-0.058379 0.067260 -0.009489 0.046861 0.998901 0.000120 178 173 165
-0.060859 0.065200 -0.009367 -0.049810 -0.998321 -0.029548 151 162 155
-0.057173 0.067155 -0.008447 0.041119 0.988914 0.142683 187 187 183
-0.056461 0.066624 -0.007344 0.093936 0.907791 0.408768 206 201 199
-0.057027 0.065440 -0.006677 -0.183343 -0.494896 0.849391 171 175 168
-0.057970 0.065226 -0.007250 -0.063940 -0.936576 0.344583 161 171 165
-0.056644 0.065502 -0.006618 -0.005569 -0.189832 0.981801 177 180 175
-0.056293 0.066861 -0.007788 0.033181 0.889761 0.455220 197 191 190
-0.056605 0.067116 -0.008371 0.045103 0.937853 0.344088 186 184 180
-0.055607 0.066310 -0.006716 0.011441 0.519483 0.854404 201 203 195
-0.059510 0.064990 -0.008518 -0.040851 -0.996691 -0.070274 157 164 160
-0.055901 0.066568 -0.007269 0.020210 0.886448 0.462387 202 199 193
-0.056084 0.065812 -0.006642 0.019291 0.136383 0.990468 193 195 191
-0.057360 0.065169 -0.007192 -0.128805 -0.937553 0.323114 162 166 161
-0.060171 0.065168 -0.009518 -0.063145 -0.997060 -0.043413 166 169 158
-0.058596 0.065012 -0.008070 0.023955 -0.985859 0.165858 157 164 159
-0.060566 0.065200 -0.009878 -0.039626 -0.999051 -0.018086 121 131 118
-0.057673 0.067224 -0.009670 0.031271 0.998853 -0.036261 163 161 134
-0.061770 0.065211 -0.010880 -0.050644 -0.995307 0.082458 33 29 33
-0.056531 0.065300 -0.006706 -0.020871 -0.655324 0.755059 169 174 170
-0.063009 0.065037 -0.011709 0.179964 -0.957702 0.224543 23 24 16
-0.062586 0.065168 -0.011502 0.108983 -0.977895 0.178450 29 19 19
-0.058474 0.067247 -0.010350 0.148177 0.988642 0.025117 47 55 87
-0.063020 0.065034 -0.011714 0.043206 -0.967697 0.248389 23 24 16
-0.062174 0.065207 -0.011208 -0.026897 -0.995167 0.094440 23 17 15
-0.058076 0.067220 -0.009999 0.061259 0.993922 -0.091468 122 122 125
-0.060962 0.065210 -0.010233 -0.031375 -0.999113 0.028075 116 109 105
-0.061365 0.065211 -0.010562 -0.046654 -0.997400 0.054924 75 63 67
-0.057752 0.065158 -0.007563 -0.055279 -0.990008 0.129728 159 165 163
-0.057270 0.067214 -0.009348 0.042914 0.999044 0.008250 171 176 167
-0.058155 0.065123 -0.007858 0.035451 -0.970616 0.238008 159 165 161
-0.058978 0.065055 -0.008460 0.081069 -0.996561 0.017146 157 166 160
-0.059772 0.065114 -0.009177 -0.097384 -0.990236 -0.099746 166 169 161
-0.056927 0.065193 -0.006948 -0.184314 -0.827503 0.530346 162 168 163
-0.055742 0.066796 -0.007707 0.018363 0.896134 0.443403 192 188 185
-0.056068 0.067068 -0.008273 0.030809 0.955558 0.293188 183 180 176
-0.056120 0.065470 -0.006645 0.056765 -0.284950 0.956861 173 176 173
-0.056840 0.067178 -0.009073 0.064283 0.997498 0.029406 177 177 171
-0.055350 0.066520 -0.007182 -0.009501 0.900583 0.434580 198 196 185
-0.055512 0.065705 -0.006618 0.026408 -0.118867 0.992559 192 193 191
-0.054961 0.066140 -0.006696 0.040056 0.169367 0.984739 200 202 195
-0.055535 0.067021 -0.008174 0.029100 0.944021 0.328599 182 178 172
-0.061599 0.065171 -0.011173 -0.056404 -0.993397 0.099897 24 22 21
-0.054839 0.066468 -0.007047 0.020740 0.887481 0.460378 202 192 184
-0.055178 0.066748 -0.007625 0.007325 0.897129 0.441708 188 180 174
-0.059942 0.065176 -0.009944 -0.068751 -0.996656 -0.044156 97 109 98
-0.061088 0.065168 -0.011039 -0.042839 -0.995343 0.086349 19 19 17
-0.054526 0.066105 -0.006719 -0.052313 0.446727 0.893139 201 202 197
-0.056172 0.067134 -0.009162 0.054990 0.998486 0.001234 172 169 165
-0.057875 0.064988 -0.008298 -0.016400 -0.997882 0.062949 163 165 163
-0.054967 0.065653 -0.006632 -0.135439 -0.226133 0.964634 191 193 191
-0.056958 0.067206 -0.009896 0.055462 0.998129 0.025762 108 118 102
-0.059076 0.065026 -0.009325 -0.019617 -0.999041 -0.039139 163 167 155
-0.059461 0.065108 -0.009727 -0.117816 -0.989664 -0.081762 148 157 143
-0.057047 0.065094 -0.007745 -0.062302 -0.993265 0.097692 155 164 162
-0.060656 0.065167 -0.010763 -0.030471 -0.997163 0.068828 29 29 29
-0.060246 0.065197 -0.010460 -0.018418 -0.999640 0.019469 85 79 80
-0.057774 0.067153 -0.010514 -0.005809 0.998768 -0.049271 59 47 46
-0.058665 0.065064 -0.009034 0.041628 -0.999131 0.002058 162 164 160
-0.056237 0.065118 -0.007117 -0.027692 -0.966188 0.256346 159 163 160
-0.057356 0.067210 -0.010242 -0.066558 0.997598 0.019212 107 66 78
-0.056641 0.065102 -0.007431 -0.058688 -0.992249 0.109533 157 164 161
-0.054664 0.066668 -0.007475 0.015576 0.903735 0.427811 193 183 177
-0.056561 0.067167 -0.009550 0.088223 0.996100 0.001403 145 150 143
-0.055376 0.067061 -0.008481 0.053074 0.991380 0.119786 179 174 165
-0.055767 0.067108 -0.008852 0.050956 0.997466 0.049644 176 172 161
-0.057445 0.065089 -0.008096 -0.002359 -0.978328 0.207048 158 166 163
-0.055618 0.065272 -0.006819 0.039439 -0.756941 0.652292 166 169 162
-0.054974 0.066973 -0.008095 0.037603 0.942437 0.332263 183 178 169
-0.058225 0.065063 -0.008801 -0.044979 -0.997698 -0.050751 161 163 160
-0.054260 0.066398 -0.007030 0.000283 0.809059 0.587728 201 199 191
-0.053796 0.066325 -0.006784 -0.027225 0.762320 0.646627 198 197 192
-0.054429 0.066918 -0.008003 0.035380 0.939424 0.340928 184 178 171
-0.054066 0.066648 -0.007455 0.009216 0.891785 0.452366 192 186 175
-0.053834 0.065993 -0.006594 0.031107 0.446183 0.894401 196 201 191
-0.057138 0.067263 -0.010657 -0.027502 0.997754 0.061069 14 8 13
-0.058819 0.065050 -0.009800 0.010009 -0.997345 -0.072139 136 140 131
-0.054280 0.065459 -0.006562 -0.234359 -0.540463 0.808069 180 183 177
-0.057163 0.064974 -0.008491 0.014252 -0.987394 0.157639 163 167 161
-0.057557 0.065012 -0.008887 -0.062563 -0.997416 -0.035299 162 166 160
-0.056254 0.067129 -0.010074 0.088791 0.994506 -0.055443 63 72 99
-0.056342 0.065032 -0.007932 -0.064676 -0.993444 0.094264 153 161 157
-0.056757 0.065027 -0.008265 -0.040701 -0.991538 0.123266 160 165 157
-0.057947 0.065055 -0.009269 -0.092199 -0.995610 -0.016164 159 165 163
-0.058750 0.065065 -0.009936 0.046634 -0.997812 -0.046862 136 140 131
-0.055936 0.065038 -0.007615 -0.065530 -0.991147 0.115471 155 165 157
-0.056640 0.067196 -0.010470 0.168373 0.985723 -0.000539 6 15 43
-0.053804 0.065518 -0.006385 -0.085356 0.077409 0.993339 184 188 184
-0.055851 0.067119 -0.009752 0.036298 0.999263 -0.012459 139 120 125
-0.053559 0.066583 -0.007323 0.014851 0.899806 0.436039 190 189 178
-0.055051 0.067089 -0.009074 0.040829 0.999140 0.007343 174 170 157
-0.058338 0.065081 -0.009631 0.047618 -0.998678 -0.019383 152 163 153
-0.054657 0.067052 -0.008717 0.046399 0.995128 0.086987 180 175 166
-0.055520 0.065045 -0.007314 -0.047048 -0.973379 0.224321 155 165 159
-0.055445 0.067108 -0.009439 0.043378 0.999039 -0.006363 164 162 148
-0.053885 0.066865 -0.007912 0.031788 0.949355 0.312595 183 180 169
-0.054858 0.065147 -0.006939 -0.124955 -0.671347 0.730533 166 168 162
-0.053152 0.066322 -0.006848 -0.069641 0.655707 0.751796 198 196 192
-0.054145 0.067011 -0.008570 0.058656 0.985538 0.158976 178 173 158
-0.052700 0.066253 -0.006650 -0.058390 0.738258 0.671987 195 194 189
-0.053183 0.065818 -0.006614 -0.048423 0.425205 0.903800 199 198 191
-0.053339 0.066819 -0.007821 0.040457 0.961194 0.272893 185 182 171
-0.052960 0.066544 -0.007283 0.024532 0.893371 0.448649 191 188 180
-0.052697 0.065858 -0.006431 -0.149644 0.458378 0.876069 196 195 188
-0.053181 0.065330 -0.006379 -0.189571 -0.047759 0.980704 181 182 177
-0.054919 0.064979 -0.007441 -0.070274 -0.980841 0.181697 158 166 157
-0.053605 0.066964 -0.008473 0.057936 0.984999 0.162547 180 177 163
-0.057262 0.064994 -0.009427 -0.062567 -0.997973 0.011653 158 167 160
-0.052692 0.065460 -0.006221 -0.088332 0.300146 0.949795 178 181 175
-0.054734 0.067071 -0.009605 0.022710 0.999335 -0.028514 146 151 132
-0.054034 0.065044 -0.006893 -0.131317 -0.944673 0.300579 164 169 167
-0.054339 0.067064 -0.009282 0.022183 0.999456 0.024420 163 168 154
-0.052226 0.066231 -0.006681 -0.030536 0.682446 0.730298 198 197 191
-0.057635 0.065025 -0.009816 -0.123206 -0.992347 0.008186 145 156 147
-0.056038 0.064968 -0.008454 -0.062331 -0.996064 0.063014 157 162 157
-0.056441 0.064967 -0.008781 -0.035224 -0.998862 0.032132 156 164 160
-0.055967 0.066992 -0.010539 0.121940 0.969882 -0.210853 42 24 26
-0.055541 0.067091 -0.010296 0.002704 0.991012 -0.133743 74 24 33
-0.058025 0.065081 -0.010196 -0.080400 -0.996763 -0.000328 116 125 112
-0.055635 0.064965 -0.008128 -0.071101 -0.993968 0.083498 156 165 159
-0.055138 0.067086 -0.009968 0.040627 0.999023 -0.017380 115 94 89
-0.055231 0.064964 -0.007804 -0.077721 -0.991927 0.100201 159 166 158
-0.052463 0.066463 -0.007138 0.019960 0.901775 0.431745 196 189 185
-0.053939 0.067035 -0.008951 0.044604 0.997041 0.062604 174 171 159
-0.052789 0.066761 -0.007734 0.040124 0.934659 0.353274 184 181 173
-0.053587 0.065080 -0.006618 -0.155722 -0.726511 0.669278 167 171 168
-0.056832 0.064977 -0.009160 -0.043926 -0.998959 0.012308 151 165 156
-0.054373 0.064971 -0.007312 -0.093601 -0.970174 0.223607 163 166 163
-0.053056 0.066917 -0.008384 0.046703 0.987977 0.147377 176 175 166
-0.051590 0.066152 -0.006476 0.017374 0.728626 0.684690 197 196 190
-0.052052 0.065706 -0.006428 -0.029157 0.446271 0.894423 198 198 194
-0.052243 0.066709 -0.007646 0.031098 0.935877 0.350949 183 180 173
-0.051861 0.066436 -0.007111 0.023711 0.901643 0.431831 195 189 186
-0.051591 0.065723 -0.006290 -0.045108 0.345087 0.937486 195 193 192
-0.052527 0.066875 -0.008275 0.048965 0.976581 0.209509 177 178 167
-0.054440 0.067019 -0.010104 0.006986 0.995158 -0.098040 56 65 99
-0.052905 0.064955 -0.006695 -0.092579 -0.972246 0.214863 168 172 169
-0.054533 0.064892 -0.007955 -0.076367 -0.993287 0.086883 161 167 160
-0.055333 0.064914 -0.008632 -0.067339 -0.997295 0.029460 158 167 160
-0.053311 0.064937 -0.007022 -0.073827 -0.984909 0.156537 166 171 167
-0.054127 0.064894 -0.007643 -0.071055 -0.987708 0.139230 165 167 164
-0.052478 0.065057 -0.006472 -0.104046 -0.657977 0.745816 172 176 171
-0.051169 0.066086 -0.006503 0.179009 0.883295 0.433296 197 196 190
-0.054929 0.064898 -0.008313 -0.073179 -0.995296 0.063493 163 167 159
-0.053620 0.067056 -0.009526 0.004845 0.997060 0.076475 159 147 130
-0.057330 0.064970 -0.010346 -0.087482 -0.995862 0.024633 84 78 79
-0.053226 0.067014 -0.009163 0.047506 0.993712 0.101393 170 173 162
-0.054825 0.067068 -0.010522 0.090161 0.995782 -0.016969 5 2 31
-0.056926 0.064974 -0.010021 -0.041100 -0.998927 0.021357 122 133 120
-0.052836 0.066957 -0.008785 0.034019 0.992471 0.117657 176 176 169
