ply
format ascii 1.0
comment Exported by Geomagic
element vertex 681
property float x
property float y
property float z
property float nx
property float ny
property float nz
property uchar red
property uchar green
property uchar blue
end_header
-0.007008 -0.035522 0.018255 -0.989843 0.125450 -0.066874 154 154 146
-0.000102 -0.014523 -0.004588 0.997858 -0.059220 0.027791 198 197 189
-0.004206 -0.038614 0.020818 0.988774 -0.123494 0.084126 202 201 197
-0.000174 -0.015215 -0.003867 0.995501 -0.087982 0.035177 203 200 194
-0.000267 -0.015906 -0.003145 0.992610 -0.115576 0.036984 200 198 191
0.000004 -0.012433 -0.006740 0.999587 -0.027521 0.008254 189 191 184
-0.007004 -0.041225 0.024061 -0.266190 -0.729900 0.629595 200 192 179
-0.008067 -0.011772 -0.005729 -0.375054 -0.769871 0.516365 184 182 168
-0.004677 -0.040659 0.022996 0.941471 -0.253188 0.222548 206 206 200
-0.007172 -0.036205 0.018979 -0.981955 0.134009 -0.133442 191 189 177
-0.008053 -0.009715 -0.007827 -0.430121 0.856293 -0.285935 200 198 192
-0.007076 -0.009513 -0.008239 -0.281790 0.883189 -0.374929 197 196 194
-0.003511 -0.014171 -0.004243 -0.995973 0.075124 -0.048926 188 184 173
-0.003465 -0.013484 -0.004957 -0.999657 -0.026118 -0.002031 187 183 181
-0.004121 -0.012667 -0.005652 -0.301212 -0.859073 0.413841 171 170 164
-0.005108 -0.012494 -0.005653 -0.153508 -0.895565 0.417610 169 171 165
0.000063 -0.009839 -0.009456 0.868919 0.343858 -0.356009 183 184 173
-0.003732 -0.009297 -0.009225 -0.088973 0.779251 -0.620364 192 191 185
-0.001122 -0.009514 -0.009634 0.048460 0.735795 -0.675467 171 168 162
-0.004675 -0.009406 -0.009166 -0.166604 0.813575 -0.557081 192 195 191
-0.000215 -0.009844 -0.009842 0.435929 0.625735 -0.646854 182 182 174
-0.000054 -0.010261 -0.009914 0.873034 0.223011 -0.433680 186 186 174
-0.001811 -0.009911 -0.010045 -0.008242 0.761554 -0.648050 172 168 164
-0.002890 -0.009937 -0.010036 -0.041078 0.774092 -0.631739 185 186 180
-0.006229 -0.012757 -0.006526 -0.116812 -0.891649 0.437398 169 162 159
-0.007210 -0.012558 -0.006528 -0.253027 -0.826742 0.502470 165 159 153
-0.008217 -0.010124 -0.008802 -0.332683 0.831631 -0.444648 193 192 192
-0.007580 -0.038286 0.019755 -0.981442 0.114648 -0.153715 191 188 178
-0.003687 -0.015574 -0.004202 -0.990173 0.126988 -0.058583 185 183 180
-0.004351 -0.040019 0.020843 0.995463 -0.081600 0.048928 204 202 199
0.000038 -0.011754 -0.008875 0.998666 -0.051055 0.007694 188 186 182
-0.000349 -0.016612 -0.003846 0.975974 -0.216608 0.023556 198 196 190
0.000012 -0.012453 -0.008161 0.999638 -0.026502 0.004654 188 189 181
-0.004238 -0.039332 0.020116 0.991460 -0.108819 0.071877 201 201 196
-0.003781 -0.016262 -0.003486 -0.979754 -0.200193 -0.002352 183 182 172
-0.003504 -0.016993 -0.002801 -0.950525 -0.304757 -0.060211 165 165 159
-0.008207 -0.012286 -0.006612 -0.355193 -0.789794 0.500063 171 165 160
-0.000069 -0.014546 -0.006012 0.998516 -0.049944 0.021712 199 196 185
-0.000508 -0.017303 -0.003112 0.973769 -0.227515 -0.003395 199 197 190
-0.004095 -0.038646 0.019386 0.987345 -0.131616 0.088471 202 201 196
-0.007121 -0.036231 0.017559 -0.992220 0.124412 -0.004485 118 116 116
-0.000218 -0.015932 -0.004569 0.994434 -0.098956 0.036180 200 199 191
-0.007924 -0.039649 0.021208 -0.974665 0.218308 -0.048665 196 189 180
-0.000033 -0.013850 -0.006730 0.999538 -0.028170 0.011402 195 190 183
-0.000008 -0.013152 -0.007447 0.999674 -0.024334 0.007660 189 189 182
-0.000130 -0.015241 -0.005294 0.996798 -0.073660 0.031093 197 195 190
-0.008121 -0.040309 0.021921 -0.997438 0.046729 -0.054171 199 194 185
-0.004257 -0.013102 -0.006609 -0.225516 -0.872799 0.432855 174 170 167
-0.008997 -0.010828 -0.007936 -0.969925 0.242117 0.024977 186 186 175
-0.009136 -0.011519 -0.007202 -0.963724 0.103617 0.245967 206 205 193
-0.003473 -0.014197 -0.005661 -0.998480 0.052904 -0.015438 185 184 180
-0.004684 -0.041410 0.022321 0.874702 -0.376957 0.304630 205 206 198
-0.004408 -0.040715 0.021555 0.993175 -0.102962 0.054786 203 203 197
-0.005157 -0.041853 0.022872 0.551512 -0.627666 0.549428 224 221 215
-0.007752 -0.038968 0.020473 -0.985240 0.146564 -0.088441 191 186 178
-0.003549 -0.014886 -0.004944 -0.992952 0.110250 -0.043485 185 185 178
0.000100 -0.011067 -0.009598 0.993821 -0.007237 -0.110761 188 187 179
-0.007210 -0.036921 0.018273 -0.991602 0.123761 -0.037525 191 187 174
-0.003510 -0.013508 -0.006359 -0.836300 -0.488413 0.249110 183 182 176
-0.007366 -0.037606 0.019001 -0.983426 0.132681 -0.123570 188 187 179
-0.007204 -0.041847 0.023278 -0.249470 -0.733176 0.632628 189 184 171
-0.007938 -0.041099 0.022665 -0.952662 -0.233340 0.194909 200 196 185
-0.005246 -0.012926 -0.006605 -0.133207 -0.891362 0.433278 170 166 162
-0.006148 -0.041957 0.023158 0.208536 -0.773092 0.599034 224 222 210
-0.007032 -0.010007 -0.009226 -0.252623 0.815674 -0.520439 191 196 188
-0.004122 -0.009927 -0.009931 -0.080876 0.772409 -0.629956 190 193 192
-0.005910 -0.009963 -0.009627 -0.188901 0.809335 -0.556142 191 193 186
-0.000916 -0.010240 -0.010398 0.180347 0.714052 -0.676465 167 164 157
-0.001878 -0.010397 -0.010673 0.012176 0.802931 -0.595947 172 170 164
-0.005171 -0.010322 -0.010262 -0.130159 0.768572 -0.626382 192 191 185
-0.005265 -0.042548 0.022188 0.563150 -0.393749 0.726516 236 231 220
-0.003729 -0.016288 -0.004909 -0.994275 0.095945 -0.047015 185 183 177
-0.000272 -0.016642 -0.005271 0.976618 -0.205963 0.061617 194 192 186
-0.008349 -0.012782 -0.007516 -0.334279 -0.818854 0.466622 161 152 140
-0.004395 -0.013546 -0.007566 -0.244337 -0.861255 0.445578 169 169 165
-0.004268 -0.040050 0.019413 0.990818 -0.118489 0.065109 205 203 197
-0.000003 -0.013172 -0.008867 0.999787 -0.020458 0.002777 186 187 182
0.000040 -0.011776 -0.010299 0.996505 0.026749 -0.079138 185 186 179
-0.004384 -0.040737 0.020136 0.995288 -0.091515 0.032042 200 202 195
-0.007787 -0.039685 0.019776 -0.971582 0.170261 -0.164438 193 188 177
-0.007403 -0.038325 0.018309 -0.986486 0.139340 -0.086193 190 186 177
-0.000555 -0.017319 -0.004529 0.953571 -0.298986 0.036209 195 194 187
-0.007270 -0.037638 0.017580 -0.994032 0.106472 -0.023753 0 0 0
-0.000092 -0.015265 -0.006718 0.998340 -0.052861 0.022906 192 191 184
-0.000046 -0.014569 -0.007436 0.999197 -0.037138 0.015008 189 190 179
0.000016 -0.012475 -0.009584 0.999539 -0.030155 0.003561 188 187 179
-0.003560 -0.017008 -0.004217 -0.819340 -0.571373 0.047071 173 168 165
-0.008044 -0.040377 0.020533 -0.989772 0.123556 -0.071316 193 187 179
-0.004107 -0.039366 0.018679 0.986504 -0.137390 0.089074 199 199 196
-0.003515 -0.014912 -0.006362 -0.994958 0.098092 -0.020881 188 185 180
-0.007306 -0.037904 0.017859 -0.989992 0.125856 -0.063844 192 186 180
-0.000020 -0.013872 -0.008153 0.999730 -0.022482 0.005780 189 188 183
-0.000165 -0.015958 -0.005998 0.994540 -0.095645 0.041739 193 191 190
-0.009177 -0.011531 -0.008624 -0.986743 0.147904 -0.066806 193 185 172
-0.007365 -0.013060 -0.007446 -0.186931 -0.861610 0.471895 159 155 150
-0.003610 -0.015601 -0.005644 -0.991889 0.120391 -0.040760 187 185 179
-0.007974 -0.041768 0.021931 -0.954160 -0.169890 0.246405 201 196 188
-0.008040 -0.041067 0.021231 -0.998710 -0.031842 0.039573 201 200 188
-0.003485 -0.014226 -0.007073 -0.999016 -0.032654 0.030021 185 185 180
-0.004450 -0.041433 0.020851 0.986531 -0.148524 0.068537 201 202 197
-0.009329 -0.012225 -0.007888 -0.983367 -0.133500 0.123154 190 192 177
-0.007564 -0.039007 0.019029 -0.982831 0.138286 -0.122143 192 186 180
-0.005387 -0.013366 -0.007553 -0.142134 -0.887030 0.439290 166 163 157
-0.007334 -0.042470 0.022487 -0.511735 -0.617843 0.596990 197 187 174
-0.006383 -0.013216 -0.007522 -0.115340 -0.892111 0.436847 161 161 151
-0.004711 -0.042104 0.021561 0.929517 -0.232009 0.286653 205 206 201
-0.009030 -0.010892 -0.009339 -0.806956 0.467075 -0.361474 146 145 140
-0.001345 -0.010740 -0.011133 0.188742 0.807590 -0.558726 164 162 155
-0.008222 -0.010802 -0.009689 -0.394667 0.648703 -0.650709 189 192 182
-0.006228 -0.042644 0.022263 -0.036045 -0.506425 0.861531 238 235 227
-0.006717 -0.010694 -0.010294 -0.254758 0.733591 -0.630034 191 191 185
-0.002354 -0.010798 -0.011227 -0.040588 0.818970 -0.572399 179 180 173
-0.000268 -0.011405 -0.011115 0.756251 0.541864 -0.366698 182 182 175
-0.004034 -0.010916 -0.011150 -0.097574 0.782244 -0.615283 186 188 183
-0.009008 -0.011813 -0.009662 -0.796995 0.340991 -0.498521 104 102 97
-0.007628 -0.043058 0.021872 -0.519917 0.182822 0.834423 208 201 192
-0.006512 -0.043971 0.022543 0.000896 0.265257 0.964177 254 252 248
-0.007505 -0.013527 -0.008345 -0.206430 -0.878409 0.431028 153 153 142
-0.008494 -0.013217 -0.008467 -0.375841 -0.834844 0.402218 150 147 140
-0.008058 -0.041091 0.019837 -0.988427 0.107869 -0.106666 196 191 180
-0.006518 -0.013660 -0.008442 -0.100646 -0.892798 0.439071 160 156 153
-0.003672 -0.016317 -0.006336 -0.995693 0.087866 -0.029579 193 183 178
-0.008104 -0.041773 0.020528 -0.995432 0.069576 0.065372 213 210 200
-0.004537 -0.014002 -0.008515 -0.275274 -0.849189 0.450667 173 170 162
-0.000064 -0.015289 -0.008141 0.998955 -0.042434 0.017014 188 188 184
-0.000014 -0.013892 -0.009574 0.999807 -0.019314 0.003566 189 186 181
-0.004562 -0.042142 0.020161 0.986587 -0.160354 0.030530 204 198 194
-0.004440 -0.041453 0.019434 0.991481 -0.127207 0.027995 199 196 191
-0.004329 -0.040764 0.018707 0.989405 -0.133542 0.056966 194 195 192
-0.009050 -0.012962 -0.008633 -0.719081 -0.638684 0.273870 166 162 152
-0.007606 -0.039725 0.018334 -0.987729 0.133742 -0.080644 122 121 115
0.000000 -0.013194 -0.010290 0.999754 -0.022068 -0.002433 184 186 176
-0.000032 -0.014592 -0.008860 0.999675 -0.024499 0.006960 186 188 177
-0.002554 -0.017722 -0.005143 -0.572237 -0.809375 0.132126 61 53 45
-0.000448 -0.017350 -0.005962 0.868955 -0.480363 0.119028 195 196 192
-0.003503 -0.014924 -0.007795 -0.996685 0.081347 -0.000218 185 184 177
0.000009 -0.012495 -0.011006 0.993553 0.055622 -0.098784 188 183 175
-0.000200 -0.016676 -0.006704 0.994366 -0.096414 0.044058 190 190 181
-0.003578 -0.015627 -0.007068 -0.994850 0.100417 -0.013762 189 184 180
-0.000117 -0.015985 -0.007426 0.997675 -0.062862 0.026346 191 190 185
-0.000036 -0.011795 -0.011715 0.938276 0.286411 -0.193927 182 178 172
-0.005534 -0.013820 -0.008502 -0.139615 -0.886452 0.441260 170 161 162
-0.008077 -0.042465 0.021216 -0.938788 -0.131535 0.318394 214 208 199
-0.007764 -0.040406 0.019051 -0.977578 0.143207 -0.154377 192 187 180
-0.004702 -0.042822 0.020872 0.980213 -0.169549 0.102154 209 205 194
-0.005749 -0.011188 -0.011148 -0.184567 0.750772 -0.634252 186 187 180
-0.003619 -0.017048 -0.005625 -0.699310 -0.701867 0.135457 179 179 170
-0.004931 -0.043507 0.021605 0.931993 -0.113715 0.344177 242 237 226
-0.008106 -0.011449 -0.010400 -0.504511 0.570486 -0.648085 182 182 175
-0.005476 -0.044147 0.022352 0.630663 0.002049 0.776055 253 253 251
-0.001205 -0.011333 -0.012138 0.134552 0.875204 -0.464667 170 167 158
-0.002780 -0.011311 -0.011900 -0.096525 0.815808 -0.570212 180 183 179
-0.000295 -0.011656 -0.012115 0.626220 0.682081 -0.377642 180 176 168
-0.007493 -0.044173 0.022387 -0.226572 0.394438 0.890553 221 214 203
-0.009265 -0.012350 -0.009680 -0.946013 0.133819 -0.295217 177 174 170
-0.009211 -0.012479 -0.009752 -0.923341 -0.006852 -0.383919 178 174 166
-0.006747 -0.045424 0.023069 0.283997 0.289234 0.914160 253 252 243
-0.007523 -0.045131 0.022816 -0.236834 0.403187 0.883940 249 242 233
-0.005031 -0.011638 -0.011886 -0.142738 0.781436 -0.607441 180 181 175
-0.007189 -0.011822 -0.011280 -0.393433 0.667173 -0.632527 185 183 180
-0.002289 -0.011680 -0.012553 -0.121761 0.818635 -0.561258 177 177 174
-0.006212 -0.011765 -0.011689 -0.241435 0.764122 -0.598187 183 183 176
-0.005622 -0.045494 0.022496 0.612544 0.125644 0.780387 246 242 232
-0.003549 -0.011757 -0.012330 -0.133744 0.787822 -0.601207 180 182 178
-0.000627 -0.011851 -0.012861 0.534263 0.653813 -0.535808 174 172 164
-0.005090 -0.044896 0.021691 0.957204 -0.088433 0.275575 228 226 215
-0.008137 -0.045285 0.022713 -0.571587 0.327888 0.752182 214 209 193
-0.008259 -0.043159 0.020562 -0.980037 0.143112 0.138011 231 224 211
-0.007646 -0.013934 -0.009349 -0.275985 -0.881182 0.383864 150 149 141
-0.008627 -0.013622 -0.009473 -0.424833 -0.846404 0.321120 150 145 136
-0.003652 -0.014916 -0.009197 -0.503761 -0.767106 0.397208 181 182 176
-0.000100 -0.012506 -0.012401 0.888146 0.261575 -0.377855 181 179 168
-0.008333 -0.043870 0.021274 -0.909261 0.328729 0.255309 225 218 203
-0.004513 -0.042168 0.018738 0.988385 -0.142807 0.051974 193 194 193
-0.004958 -0.044224 0.020926 0.984217 -0.161617 0.072085 213 208 203
-0.003636 -0.016341 -0.007765 -0.998002 0.060915 -0.016764 185 186 183
-0.000026 -0.014612 -0.010281 0.999762 -0.021692 0.002593 191 186 180
-0.004796 -0.043540 0.020192 0.984808 -0.166066 0.050742 201 198 194
-0.008188 -0.042486 0.019826 -0.991303 0.107738 -0.075561 210 212 196
-0.000722 -0.017874 -0.006814 0.788170 -0.587629 0.182975 192 192 190
-0.000016 -0.013913 -0.010997 0.999760 -0.015323 -0.015641 188 186 177
-0.004683 -0.014462 -0.009462 -0.323625 -0.831562 0.451411 170 167 158
-0.000146 -0.016702 -0.008128 0.996074 -0.082051 0.033216 189 190 182
-0.003674 -0.017035 -0.007051 -0.999166 -0.040740 -0.002687 186 180 174
-0.000083 -0.016008 -0.008849 0.998600 -0.049795 0.017873 191 188 181
-0.004358 -0.041482 0.018002 0.987068 -0.140181 0.077765 190 191 191
-0.002700 -0.017935 -0.006337 -0.610952 -0.756023 0.234877 81 68 55
-0.004654 -0.042853 0.019460 0.986581 -0.155913 0.048456 193 196 189
-0.007659 -0.040441 0.017631 -0.990439 0.127709 -0.052164 160 157 153
-0.000045 -0.015312 -0.009567 0.999444 -0.032354 0.007982 188 185 177
-0.003577 -0.015647 -0.008487 -0.996700 0.081137 -0.002454 182 183 181
-0.007786 -0.041128 0.018357 -0.989688 0.124793 -0.070306 193 188 181
-0.000027 -0.013215 -0.011711 0.998790 0.022222 -0.043871 188 182 176
-0.007987 -0.041806 0.019084 -0.975731 0.130337 -0.175955 194 189 182
-0.005680 -0.014272 -0.009456 -0.158753 -0.885180 0.437325 161 161 152
-0.000245 -0.017414 -0.007395 0.914577 -0.382298 0.131899 192 191 183
-0.006672 -0.014105 -0.009442 -0.131467 -0.897729 0.420476 157 155 146
-0.008399 -0.044594 0.021903 -0.909645 0.313112 0.272959 225 215 201
-0.007598 -0.046061 0.023220 -0.167477 0.303528 0.937988 243 239 222
-0.008537 -0.012665 -0.010881 -0.698424 0.398897 -0.594209 179 177 169
-0.006716 -0.046866 0.023518 0.214686 0.281484 0.935242 250 245 232
-0.006013 -0.046555 0.023050 0.516473 0.214632 0.828969 254 252 234
-0.001235 -0.011999 -0.013260 -0.005832 0.794713 -0.606958 168 168 160
-0.006919 -0.012240 -0.011947 -0.375298 0.719166 -0.584766 179 179 173
-0.004439 -0.012155 -0.012671 -0.116828 0.789319 -0.602766 174 172 169
-0.002463 -0.012222 -0.013224 -0.153726 0.776772 -0.610732 171 173 166
-0.000911 -0.012305 -0.013506 0.505575 0.528399 -0.682047 164 165 153
-0.007607 -0.047280 0.023488 -0.473087 0.104998 0.874737 232 225 208
-0.005670 -0.012337 -0.012654 -0.193641 0.800748 -0.566838 173 173 166
-0.008847 -0.013537 -0.010856 -0.879378 0.154715 -0.450287 169 167 157
-0.006786 -0.048092 0.023882 0.163873 0.004007 0.986473 253 250 239
-0.006031 -0.047586 0.023197 0.763607 -0.074383 0.641383 248 246 232
-0.008805 -0.045945 0.022070 -0.946198 0.236844 0.220484 236 227 211
-0.003782 -0.015213 -0.010296 -0.381634 -0.870898 0.309665 179 174 167
-0.005814 -0.014697 -0.010405 -0.172019 -0.896197 0.408952 159 158 150
-0.003523 -0.017733 -0.007792 -0.733065 -0.655002 0.183275 172 170 163
-0.007795 -0.014320 -0.010383 -0.320457 -0.891494 0.320230 151 145 136
-0.008178 -0.043212 0.019131 -0.982909 0.128527 -0.131804 195 197 182
-0.003584 -0.015658 -0.009907 -0.999585 0.020711 0.020036 186 185 180
-0.003653 -0.017057 -0.008468 -0.999647 0.020016 -0.017428 186 185 178
-0.005209 -0.045621 0.020960 0.985191 -0.170091 0.021641 209 203 199
-0.008340 -0.043894 0.019853 -0.989087 0.134280 -0.060638 206 203 192
-0.003619 -0.016363 -0.009189 -0.999142 0.040339 -0.009317 187 185 179
-0.004873 -0.044252 0.019491 0.985376 -0.158369 0.062871 201 197 192
-0.008461 -0.044582 0.020577 -0.990310 0.133686 -0.037588 220 215 201
-0.007717 -0.041156 0.016929 -0.991988 0.115309 -0.051626 116 115 113
-0.004577 -0.042881 0.018031 0.987342 -0.144876 0.064546 198 193 191
-0.008583 -0.045269 0.021302 -0.979214 0.199230 -0.038057 226 221 203
-0.000116 -0.013238 -0.013107 0.943980 0.221555 -0.244571 179 178 170
-0.005303 -0.046307 0.021673 0.987799 -0.153894 -0.023873 215 206 199
-0.004721 -0.043567 0.018759 0.986943 -0.148118 0.063288 194 195 187
-0.002846 -0.018255 -0.007423 -0.843235 -0.498867 0.200216 88 79 69
-0.007829 -0.041845 0.017655 -0.990959 0.117638 -0.064523 190 187 179
-0.000042 -0.015332 -0.010988 0.999681 -0.025138 -0.002479 186 185 177
-0.000483 -0.018089 -0.008088 0.800486 -0.547808 0.243161 194 198 197
-0.005034 -0.044936 0.020218 0.983562 -0.168048 0.066074 206 201 197
-0.000034 -0.014634 -0.011704 0.999734 -0.008926 -0.021264 184 181 176
-0.000067 -0.016031 -0.010273 0.999119 -0.041476 0.006452 188 187 182
-0.000185 -0.017419 -0.008834 0.994973 -0.094868 0.032072 191 189 182
-0.000111 -0.016728 -0.009557 0.997636 -0.066184 0.018500 190 188 181
-0.004832 -0.014918 -0.010415 -0.256908 -0.884366 0.389736 165 166 155
-0.000059 -0.013933 -0.012416 0.998728 0.015396 -0.048024 186 180 174
-0.007974 -0.042529 0.018372 -0.984167 0.138498 -0.110607 195 188 178
-0.006814 -0.014519 -0.010410 -0.160583 -0.905194 0.393492 160 153 144
-0.007723 -0.012854 -0.011927 -0.638176 0.524752 -0.563353 179 177 174
-0.005410 -0.047024 0.022404 0.935643 -0.109415 0.335560 213 210 205
-0.008647 -0.046661 0.022690 -0.677366 0.181707 0.712852 233 224 208
-0.003741 -0.012495 -0.013239 -0.127089 0.786414 -0.604486 167 168 163
-0.004501 -0.012596 -0.013251 -0.086381 0.805837 -0.585803 169 165 165
-0.001539 -0.012612 -0.013904 0.049854 0.735436 -0.675758 159 165 154
-0.008832 -0.013952 -0.011049 -0.785756 -0.583969 -0.203878 158 155 148
-0.007024 -0.012947 -0.012765 -0.496516 0.669566 -0.552406 167 168 161
-0.000897 -0.013046 -0.013985 0.554181 0.602409 -0.574445 169 168 157
-0.008475 -0.013959 -0.011588 -0.863931 0.007615 -0.503553 156 153 144
-0.008348 -0.014302 -0.011420 -0.673646 -0.738594 -0.026078 148 145 140
-0.005216 -0.012890 -0.013607 -0.095289 0.818693 -0.566272 163 161 155
-0.002887 -0.012978 -0.014077 -0.174450 0.771211 -0.612211 151 152 145
-0.002948 -0.018464 -0.008503 -0.818868 -0.517362 0.248581 119 110 105
-0.007887 -0.048828 0.023367 -0.453509 -0.220423 0.863564 233 224 210
-0.008646 -0.045994 0.020630 -0.984714 0.152335 -0.084457 201 198 182
-0.000130 -0.013937 -0.013823 0.901661 0.342343 -0.264217 177 178 169
-0.006811 -0.049133 0.023433 0.075678 -0.447787 0.890932 252 255 248
-0.003622 -0.017081 -0.009895 -0.999825 0.009904 -0.015890 183 185 179
-0.003944 -0.015554 -0.011383 -0.390931 -0.842617 0.370365 166 169 163
-0.005286 -0.046334 0.020259 0.981303 -0.175817 0.078311 202 199 197
-0.008393 -0.044612 0.019153 -0.982417 0.162126 -0.092586 195 186 180
-0.006957 -0.014923 -0.011400 -0.213653 -0.909770 0.355908 157 148 140
-0.004782 -0.044282 0.018060 0.986127 -0.151672 0.067447 197 192 187
-0.005742 -0.048384 0.022438 0.846158 -0.220654 0.485105 217 213 204
-0.004627 -0.043597 0.017328 0.986847 -0.146705 0.067915 194 195 189
-0.000097 -0.016748 -0.010977 0.998684 -0.051166 0.003597 186 186 178
-0.002947 -0.018555 -0.008540 -0.992442 -0.051337 0.111458 119 110 105
-0.007864 -0.042562 0.016950 -0.989368 0.135473 -0.052908 117 113 109
-0.008915 -0.046660 0.021346 -0.958546 0.222910 -0.177482 215 208 193
-0.000779 -0.018779 -0.008765 0.658733 -0.720455 0.216834 152 157 155
-0.000054 -0.015352 -0.012409 0.999791 -0.010142 -0.017755 184 182 174
-0.000066 -0.016051 -0.011694 0.999375 -0.035138 -0.004037 183 184 177
-0.008531 -0.045295 0.019874 -0.990557 0.134008 -0.028931 196 193 178
-0.008804 -0.048076 0.022764 -0.800656 0.005604 0.599099 234 229 216
-0.004937 -0.044966 0.018786 0.985490 -0.155065 0.069020 198 195 188
-0.005513 -0.047706 0.021698 0.988215 -0.151492 -0.021905 205 204 198
-0.000244 -0.018133 -0.009537 0.987612 -0.149979 0.046139 190 188 182
-0.005452 -0.047016 0.020983 0.988541 -0.150007 -0.016849 202 200 196
-0.005105 -0.045649 0.019516 0.983149 -0.166029 0.076505 194 199 193
-0.000151 -0.017443 -0.010259 0.996533 -0.081056 0.018737 189 187 182
-0.008019 -0.043245 0.017674 -0.984767 0.153278 -0.082088 188 187 177
-0.000078 -0.014653 -0.013122 0.998964 0.021616 -0.040041 180 180 171
-0.003610 -0.016389 -0.010616 -0.999959 0.009047 -0.000184 183 182 179
-0.004981 -0.015324 -0.011416 -0.199038 -0.899262 0.389502 164 158 152
-0.008196 -0.043926 0.018399 -0.982134 0.157827 -0.102488 192 187 177
-0.005971 -0.015118 -0.011421 -0.179162 -0.903775 0.388703 155 153 147
-0.008986 -0.047350 0.022051 -0.928998 0.114020 0.352084 235 230 214
-0.003637 -0.017884 -0.009146 -0.921536 -0.365226 0.131838 183 181 176
-0.006133 -0.013060 -0.013599 -0.317011 0.762639 -0.563813 157 157 152
-0.004267 -0.013191 -0.014049 -0.077033 0.751976 -0.654674 155 155 152
-0.007845 -0.014019 -0.012716 -0.817650 0.233060 -0.526434 158 161 153
-0.001078 -0.019071 -0.009051 0.603826 -0.768053 0.213281 100 104 107
-0.007996 -0.014598 -0.012439 -0.884963 -0.360026 -0.295333 150 147 144
-0.005696 -0.013411 -0.014255 -0.149400 0.786381 -0.599404 154 152 147
-0.000117 -0.014392 -0.014534 0.929561 0.362106 -0.069256 176 175 167
-0.002075 -0.013534 -0.015198 -0.105767 0.890946 -0.441621 156 153 154
-0.009098 -0.048767 0.022141 -0.931033 -0.107980 0.348594 233 231 215
-0.007327 -0.015162 -0.012500 -0.481128 -0.842906 0.240885 150 145 136
-0.000333 -0.018816 -0.010243 0.798276 -0.566910 0.203397 197 194 191
-0.008447 -0.045331 0.018469 -0.979033 0.171659 -0.109671 193 189 180
-0.006110 -0.015510 -0.012413 -0.219970 -0.905023 0.364070 155 151 147
-0.007002 -0.050038 0.022953 0.180081 -0.506709 0.843099 252 254 254
-0.003161 -0.013754 -0.014823 -0.194272 0.787861 -0.584409 153 148 147
-0.005543 -0.047729 0.020290 0.984229 -0.165282 0.063055 201 200 192
-0.009317 -0.048045 0.021400 -0.987739 0.119294 0.100695 209 207 194
-0.000201 -0.018158 -0.010960 0.994530 -0.101693 0.023807 190 185 181
-0.005001 -0.045681 0.018087 0.984988 -0.155695 0.074544 195 196 190
-0.000078 -0.016071 -0.013115 0.999635 -0.025655 -0.008490 184 182 170
-0.003138 -0.018951 -0.009540 -0.811714 -0.441854 0.381949 141 130 125
-0.007977 -0.043272 0.016254 -0.990718 0.135248 -0.013604 0 0 0
-0.005168 -0.046363 0.018816 0.982729 -0.164993 0.083793 195 197 193
-0.001159 -0.019306 -0.009592 0.654181 -0.689707 0.310405 96 93 101
-0.000135 -0.017466 -0.011681 0.998073 -0.061872 0.004727 185 184 180
-0.004845 -0.044996 0.017356 0.986069 -0.150757 0.070292 195 194 190
-0.008082 -0.043961 0.016978 -0.987774 0.145791 -0.055196 195 187 182
-0.005352 -0.047045 0.019549 0.980933 -0.172911 0.088733 204 198 196
-0.005124 -0.015718 -0.012419 -0.194801 -0.902939 0.383084 160 156 153
-0.000098 -0.016769 -0.012399 0.998955 -0.045545 -0.003916 182 183 179
-0.005638 -0.048416 0.021005 0.990139 -0.139806 -0.008879 204 200 194
-0.008246 -0.044643 0.017706 -0.984096 0.150974 -0.093604 187 187 180
-0.003644 -0.016406 -0.012028 -0.998692 -0.033858 0.038311 178 180 177
-0.008729 -0.046695 0.019896 -0.990184 0.139766 0.001499 196 190 183
-0.003611 -0.017808 -0.010608 -0.999878 -0.015230 -0.003625 180 180 175
-0.000083 -0.015372 -0.013829 0.999936 0.011230 -0.001440 185 179 170
-0.005748 -0.049101 0.021721 0.979919 -0.181711 0.082093 213 203 196
-0.008015 -0.049781 0.022888 -0.328039 -0.412721 0.849736 227 219 205
-0.008612 -0.045996 0.019157 -0.986653 0.158268 -0.038280 192 189 181
-0.003611 -0.017111 -0.011324 -0.999801 -0.005545 0.019116 182 182 180
-0.003559 -0.018515 -0.009905 -0.923606 -0.305497 0.231566 179 171 169
-0.006169 -0.049748 0.022455 0.672278 -0.401726 0.621818 243 242 238
-0.001176 -0.013677 -0.015344 0.447803 0.852534 -0.269550 136 141 144
-0.008858 -0.047368 0.020591 -0.947154 0.208149 -0.244076 203 196 187
-0.004147 -0.013734 -0.014667 -0.082928 0.802466 -0.590906 158 157 156
-0.005138 -0.013731 -0.014514 0.036689 0.929318 -0.367452 148 143 141
-0.006908 -0.014042 -0.014093 -0.713664 0.468796 -0.520493 144 142 135
-0.007518 -0.015018 -0.013277 -0.914822 -0.232144 -0.330469 105 102 99
-0.004216 -0.013945 -0.015183 0.203147 0.978919 -0.021183 169 167 165
-0.003237 -0.014148 -0.015490 -0.115161 0.957350 -0.264989 170 167 170
-0.002104 -0.013815 -0.016226 -0.262206 0.946749 -0.186855 170 166 169
-0.005997 -0.014008 -0.015249 -0.454600 0.747017 -0.485081 149 145 139
-0.001323 -0.013788 -0.016571 0.039691 0.984412 -0.171336 181 179 175
-0.007207 -0.015663 -0.013454 -0.666231 -0.735610 0.122535 153 147 140
-0.008907 -0.048118 0.019962 -0.987193 0.154522 -0.039655 199 193 184
-0.009296 -0.048820 0.020751 -0.953420 0.168769 -0.250017 206 200 188
-0.008741 -0.046720 0.018494 -0.980244 0.183374 -0.074130 194 189 181
-0.000262 -0.018870 -0.011658 0.962459 -0.261448 0.072925 189 187 181
-0.000041 -0.015394 -0.015246 0.998283 0.043166 0.039608 176 172 164
-0.008181 -0.050643 0.022372 -0.384281 -0.455616 0.802958 217 212 200
-0.000074 -0.014685 -0.015963 0.975218 0.219325 0.029073 162 160 154
-0.005739 -0.049128 0.020313 0.991429 -0.130574 0.004354 202 200 193
-0.005603 -0.048443 0.019586 0.982126 -0.166923 0.086981 204 199 196
-0.003622 -0.018525 -0.011312 -0.999541 0.003301 0.030129 186 185 179
-0.005057 -0.046397 0.017386 0.985446 -0.150001 0.079970 193 195 192
-0.007173 -0.050914 0.022432 0.186240 -0.552660 0.812330 252 253 247
-0.005226 -0.047079 0.018116 0.983339 -0.159762 0.086719 195 197 188
-0.003628 -0.017825 -0.012026 -0.999700 0.011907 0.021410 183 178 175
-0.005411 -0.047760 0.018847 0.980882 -0.170862 0.093149 199 201 193
-0.004896 -0.045712 0.016653 0.985860 -0.146082 0.082094 196 195 188
-0.008133 -0.044677 0.016276 -0.988912 0.141868 -0.043908 160 161 156
-0.000109 -0.016789 -0.013820 0.998850 -0.047533 -0.006231 183 180 176
-0.000084 -0.016092 -0.014534 0.998991 -0.038681 0.022840 179 180 174
-0.000586 -0.019541 -0.010915 0.858461 -0.492717 0.142386 197 199 192
-0.003526 -0.019237 -0.010610 -0.924274 -0.320053 0.208048 163 151 146
-0.005828 -0.049819 0.021031 0.989080 -0.142963 0.035783 205 205 194
-0.009181 -0.049468 0.021375 -0.952533 -0.135066 0.272834 229 224 212
-0.000137 -0.017487 -0.013104 0.998370 -0.056848 -0.005028 184 181 180
-0.003653 -0.017124 -0.012738 -0.998869 -0.031011 0.036067 183 179 177
-0.008829 -0.047406 0.019201 -0.991221 0.132215 0.000569 195 191 181
-0.008447 -0.046057 0.017744 -0.971748 0.179073 -0.153748 192 189 185
-0.006079 -0.050478 0.021754 0.761477 -0.433055 0.482302 214 214 204
-0.004287 -0.016334 -0.013411 -0.391027 -0.828878 0.400073 160 157 155
-0.000182 -0.018183 -0.012388 0.996898 -0.077440 0.014034 184 186 178
-0.008290 -0.045359 0.016996 -0.986891 0.144264 -0.072354 195 188 178
-0.006263 -0.015904 -0.013443 -0.218050 -0.889547 0.401447 154 150 141
-0.005282 -0.016125 -0.013449 -0.200708 -0.892429 0.404087 155 154 147
-0.004295 -0.013939 -0.015893 0.200275 0.971862 -0.123994 180 180 174
-0.008867 -0.050176 0.021985 -0.778902 -0.251055 0.574703 220 216 205
-0.005294 -0.013780 -0.015891 -0.243069 0.870146 -0.428677 184 178 172
-0.000333 -0.013999 -0.016713 0.666378 0.738597 -0.102052 178 180 175
-0.001681 -0.013852 -0.016745 -0.195017 0.931370 -0.307439 181 183 176
-0.004365 -0.014148 -0.016275 -0.132689 0.812490 -0.567674 185 181 179
-0.002983 -0.014164 -0.016672 -0.230526 0.911800 -0.339819 179 176 172
-0.006908 -0.015533 -0.014500 -0.902691 -0.229286 -0.364111 146 139 133
-0.001247 -0.013945 -0.017311 -0.146600 0.926897 -0.345500 189 190 181
-0.006626 -0.014846 -0.015329 -0.813531 0.247263 -0.526335 141 136 129
-0.000644 -0.014085 -0.017616 0.386235 0.884615 -0.261300 188 190 184
-0.008805 -0.047428 0.017790 -0.981500 0.166304 -0.094875 197 191 177
-0.003671 -0.018541 -0.012727 -0.998524 0.043277 0.032815 172 171 166
-0.009041 -0.050911 0.021379 -0.797157 -0.272537 0.538762 223 213 204
-0.000115 -0.016808 -0.015237 0.996358 -0.085229 0.002535 182 177 173
-0.003648 -0.019239 -0.012023 -0.993384 -0.069651 0.091301 172 169 165
-0.005661 -0.049157 0.018884 0.981662 -0.165529 0.094554 198 202 193
-0.008916 -0.048122 0.018509 -0.989023 0.146943 -0.015505 196 192 181
-0.000296 -0.019585 -0.012372 0.975960 -0.182718 0.118812 187 188 185
-0.005820 -0.049840 0.019611 0.992638 -0.118965 0.022710 203 202 195
-0.003361 -0.019975 -0.011335 -0.905579 -0.340893 0.252427 110 87 82
-0.000185 -0.018202 -0.013806 0.998230 -0.059039 -0.007142 187 181 177
-0.000940 -0.020226 -0.011587 0.792935 -0.538260 0.285536 210 212 206
-0.008316 -0.051479 0.021802 -0.453374 -0.480253 0.750872 215 208 194
-0.000155 -0.017505 -0.014523 0.998189 -0.058212 -0.015165 180 181 176
-0.004940 -0.046429 0.015950 0.985682 -0.144767 0.086457 194 194 188
-0.008240 -0.045387 0.015579 -0.989467 0.144404 0.010114 70 72 68
-0.009033 -0.048807 0.019227 -0.987989 0.154410 -0.005949 199 191 182
-0.000226 -0.018899 -0.013089 0.997698 -0.067611 0.005223 190 184 180
-0.005279 -0.047794 0.017410 0.982178 -0.163733 0.092290 199 196 191
-0.005467 -0.048476 0.018144 0.981017 -0.167707 0.097366 196 197 192
-0.005104 -0.047112 0.016677 0.984986 -0.149697 0.085996 197 195 193
-0.008352 -0.046075 0.016300 -0.987527 0.151313 -0.043532 197 190 183
-0.006100 -0.051216 0.021067 0.970415 -0.204406 0.128502 212 209 199
-0.007338 -0.051747 0.021866 0.207900 -0.585074 0.783879 254 253 252
-0.005895 -0.050533 0.020327 0.987896 -0.141351 0.063887 207 203 195
-0.006414 -0.016321 -0.014427 -0.446558 -0.874850 0.187679 152 152 148
-0.003644 -0.017850 -0.013449 -0.999777 -0.003316 0.020883 173 172 170
-0.005418 -0.016543 -0.014409 -0.200975 -0.882536 0.425134 156 150 146
-0.000046 -0.014722 -0.017390 0.846733 0.501853 -0.176601 187 191 182
-0.008484 -0.046757 0.017017 -0.977017 0.188895 -0.098778 197 192 178
-0.009191 -0.049478 0.019934 -0.968748 0.197328 -0.150301 199 194 186
-0.009355 -0.050125 0.020626 -0.982598 0.002321 0.185734 219 214 203
-0.000015 -0.016126 -0.015970 0.992402 -0.119563 0.029056 177 176 170
-0.004451 -0.016760 -0.014405 -0.388769 -0.815880 0.428018 156 154 153
0.000074 -0.015442 -0.016701 0.997185 -0.031791 0.067898 179 179 172
-0.003736 -0.017219 -0.014104 -0.805242 -0.513519 0.296451 176 173 172
-0.005716 -0.014876 -0.016270 -0.613172 0.369092 -0.698420 176 177 167
-0.000512 -0.014289 -0.018108 0.551004 0.740566 -0.384649 190 191 185
-0.000811 -0.014282 -0.018161 -0.045342 0.816501 -0.575562 191 191 185
-0.006371 -0.015658 -0.015713 -0.845894 -0.199890 -0.494477 134 132 129
-0.002369 -0.014611 -0.017838 -0.292228 0.791527 -0.536737 191 192 184
-0.000458 -0.014738 -0.018436 0.525744 0.614060 -0.588663 192 192 188
-0.003657 -0.017811 -0.014891 -0.915828 -0.381013 0.126839 173 171 172
-0.005561 -0.016831 -0.015495 -0.737905 -0.661959 -0.131553 147 143 145
0.000208 -0.015421 -0.018141 0.949929 0.236287 -0.204456 189 189 186
-0.006189 -0.051989 0.020455 0.843390 -0.381222 0.378632 212 207 202
-0.003738 -0.019934 -0.012733 -0.986136 -0.030132 0.163180 155 151 152
-0.005880 -0.050555 0.018915 0.990185 -0.127349 0.057578 200 201 194
-0.007456 -0.052563 0.021290 0.263242 -0.565303 0.781752 245 245 240
-0.008451 -0.052255 0.021182 -0.480517 -0.498841 0.721291 209 206 190
-0.009018 -0.048834 0.017815 -0.986153 0.157502 -0.051927 194 191 183
-0.009514 -0.050882 0.020005 -0.987807 0.155657 0.002924 207 208 201
-0.000189 -0.017520 -0.015940 0.996929 -0.076174 -0.018198 176 178 175
-0.008804 -0.048149 0.017071 -0.972234 0.202520 -0.117253 191 190 184
-0.000119 -0.016826 -0.016662 0.987661 -0.156480 -0.006203 179 176 171
-0.000232 -0.018918 -0.014509 0.998435 -0.055086 -0.009642 187 181 178
-0.000378 -0.020304 -0.013066 0.933938 -0.297339 0.198366 197 191 185
0.000023 -0.016137 -0.017396 0.981823 -0.189550 0.009693 174 174 172
-0.005926 -0.051254 0.019631 0.987760 -0.116944 0.103221 200 202 193
-0.009249 -0.051613 0.020691 -0.843020 -0.232688 0.484949 227 216 212
-0.008600 -0.047483 0.016347 -0.976034 0.201717 -0.081656 190 192 183
-0.003576 -0.020355 -0.012346 -0.939941 -0.214378 0.265619 116 107 108
-0.000210 -0.018220 -0.015225 0.998520 -0.050595 -0.019937 181 182 174
-0.008354 -0.046097 0.014882 -0.990839 0.134929 0.005569 109 108 105
-0.003749 -0.019253 -0.013432 -0.994506 0.079977 0.067534 163 160 163
-0.002928 -0.020741 -0.012088 -0.205837 -0.830918 0.516921 100 71 79
-0.001543 -0.020884 -0.012232 0.446743 -0.764458 0.464784 178 174 183
-0.004983 -0.047146 0.015246 0.984253 -0.155416 0.084215 188 189 185
-0.009269 -0.050202 0.019255 -0.975839 0.203000 -0.080807 201 193 184
-0.005519 -0.049192 0.017441 0.981325 -0.167879 0.093910 202 196 193
-0.009137 -0.049518 0.018531 -0.987809 0.152814 -0.029680 195 192 181
-0.005708 -0.049873 0.018175 0.982817 -0.159771 0.092444 200 198 193
-0.005156 -0.047828 0.015976 0.983400 -0.159760 0.086024 197 193 191
-0.000269 -0.019615 -0.013793 0.997803 -0.065836 0.007399 188 186 182
-0.005333 -0.048510 0.016708 0.982070 -0.166904 0.087649 194 197 193
-0.003707 -0.018559 -0.014151 -0.994652 0.100726 0.022827 168 163 162
-0.008445 -0.046787 0.015601 -0.988492 0.149615 -0.022326 195 191 182
-0.004598 -0.017228 -0.015370 -0.458160 -0.860489 0.222816 150 152 148
-0.001615 -0.020965 -0.012290 0.128411 -0.801000 0.584730 158 145 151
-0.005868 -0.016113 -0.016372 -0.868228 -0.234769 -0.437108 130 129 124
-0.004014 -0.015328 -0.017785 -0.477759 0.603325 -0.638549 183 184 174
-0.005419 -0.016111 -0.016996 -0.701342 0.073654 -0.709010 139 137 128
-0.003217 -0.015347 -0.018366 -0.321133 0.715983 -0.619874 193 194 183
-0.001264 -0.015253 -0.019035 -0.133699 0.710159 -0.691230 172 172 167
-0.005517 -0.016658 -0.016758 -0.867188 -0.268782 -0.419216 86 80 80
-0.005450 -0.016965 -0.016770 -0.607312 -0.777705 -0.162315 143 138 137
-0.002672 -0.015576 -0.018803 -0.264097 0.686152 -0.677826 192 194 185
-0.003774 -0.017846 -0.016281 -0.841156 -0.534830 0.080089 169 162 162
-0.008926 -0.048866 0.016397 -0.976443 0.173772 -0.127920 196 190 180
-0.001674 -0.021490 -0.013019 0.152431 -0.749740 0.643936 157 152 157
-0.009620 -0.051600 0.019322 -0.993824 0.110532 0.009793 208 202 195
-0.009086 -0.049547 0.017118 -0.987823 0.142284 -0.062932 196 191 182
-0.005926 -0.051981 0.018933 0.988055 -0.101537 0.115919 207 202 196
-0.005926 -0.051271 0.018209 0.997690 -0.066909 0.011739 204 201 191
-0.003796 -0.020674 -0.013415 -0.963069 -0.151199 0.222795 137 136 136
-0.000211 -0.017540 -0.017358 0.997777 -0.064901 -0.015136 184 176 171
-0.005580 -0.049908 0.016746 0.981745 -0.169925 0.085448 199 198 193
-0.005398 -0.049226 0.016011 0.981714 -0.170904 0.083836 197 196 190
-0.003888 -0.019974 -0.014110 -0.991965 0.117849 0.046016 155 153 151
-0.005045 -0.047860 0.014544 0.983480 -0.162747 0.079247 189 189 184
-0.000238 -0.018238 -0.016644 0.998533 -0.051398 -0.017016 179 178 173
-0.000258 -0.018937 -0.015928 0.998579 -0.049307 -0.020247 178 178 174
-0.009453 -0.052303 0.019994 -0.857087 -0.245285 0.453030 222 221 214
-0.003797 -0.019270 -0.014848 -0.992517 0.122055 0.003380 158 158 155
-0.008585 -0.053027 0.020550 -0.614353 -0.437356 0.656727 210 204 190
-0.008532 -0.047500 0.014906 -0.992015 0.125778 -0.009246 165 166 160
-0.005762 -0.050587 0.017472 0.982456 -0.166244 0.084517 194 201 195
-0.007599 -0.053348 0.020669 -0.038111 -0.622487 0.781702 250 252 246
-0.000277 -0.019636 -0.015213 0.998540 -0.051855 -0.015139 184 180 177
-0.009355 -0.050914 0.018556 -0.977297 0.191556 -0.090530 199 194 187
-0.009215 -0.050231 0.017831 -0.988642 0.141608 -0.050339 197 192 182
-0.000163 -0.016850 -0.018076 0.988161 -0.150647 -0.029053 178 178 170
-0.005216 -0.048542 0.015272 0.982850 -0.165526 0.081289 195 193 191
-0.000310 -0.020332 -0.014498 0.993742 -0.109072 0.024107 188 185 178
-0.000040 -0.016162 -0.018805 0.979909 -0.156091 -0.124153 174 173 171
-0.006239 -0.052633 0.019653 0.941555 -0.259946 0.214249 206 205 197
-0.003722 -0.018579 -0.015572 -0.994991 0.098846 0.014881 168 164 162
-0.008651 -0.048182 0.015618 -0.978351 0.162266 -0.128447 198 189 187
-0.006589 -0.053082 0.020175 0.817776 -0.389056 0.424120 224 223 216
-0.000476 -0.021063 -0.013737 0.785481 -0.524784 0.328055 193 194 188
-0.000529 -0.015593 -0.019401 0.466973 0.627346 -0.623197 185 186 179
-0.003396 -0.015863 -0.018803 -0.364576 0.641688 -0.674774 184 185 174
-0.004759 -0.016862 -0.017561 -0.787010 -0.176090 -0.591277 137 134 129
-0.004760 -0.017354 -0.017138 -0.590205 -0.778401 -0.213892 147 143 138
-0.002846 -0.016052 -0.019177 -0.294817 0.634386 -0.714589 188 189 181
-0.003789 -0.021102 -0.013838 -0.929549 -0.258343 0.263056 128 122 120
-0.001907 -0.015982 -0.019513 -0.266421 0.663174 -0.699444 188 189 182
-0.000747 -0.015973 -0.019866 0.108930 0.663658 -0.740063 181 181 175
-0.000414 -0.016219 -0.019830 0.691318 0.429938 -0.580717 183 185 177
-0.003947 -0.016443 -0.018965 -0.718613 0.299693 -0.627519 130 130 122
-0.000562 -0.021726 -0.014461 0.864586 -0.397213 0.307756 203 200 194
-0.008743 -0.053784 0.019913 -0.464933 -0.513198 0.721433 210 203 195
-0.000219 -0.016859 -0.019495 0.987525 0.013830 -0.156854 179 178 177
-0.000235 -0.017558 -0.018779 0.998286 -0.055601 -0.018260 172 177 175
-0.006007 -0.051988 0.017510 0.996417 -0.084536 -0.002760 200 199 196
-0.009268 -0.050947 0.017131 -0.986693 0.134207 -0.091792 200 191 186
-0.000309 -0.019652 -0.016630 0.998391 -0.052590 -0.021200 180 177 176
-0.009098 -0.050263 0.016399 -0.979977 0.128564 -0.152040 200 190 183
-0.000260 -0.018257 -0.018062 0.998502 -0.053206 -0.012787 175 177 174
-0.009547 -0.053020 0.019303 -0.955527 -0.144417 0.257125 223 223 208
-0.005107 -0.048575 0.013843 0.983262 -0.164693 0.077920 186 191 185
-0.005644 -0.050622 0.016040 0.981957 -0.171287 0.080125 199 196 187
-0.000287 -0.018954 -0.017347 0.998448 -0.052767 -0.017801 175 175 168
-0.000364 -0.021046 -0.015199 0.991922 -0.117800 0.047051 185 181 174
-0.008612 -0.048213 0.014207 -0.992394 0.121892 0.017172 192 193 183
-0.000328 -0.020351 -0.015916 0.998256 -0.056192 -0.018126 181 182 176
-0.007749 -0.054115 0.020040 -0.039595 -0.634968 0.771522 251 251 244
-0.005462 -0.049940 0.015308 0.981376 -0.172914 0.083673 192 196 193
-0.005820 -0.051302 0.016771 0.981915 -0.170142 0.083036 197 200 193
-0.008710 -0.048902 0.014927 -0.991201 0.130140 -0.024176 195 191 181
-0.003887 -0.019981 -0.015551 -0.990513 0.137416 0.000560 161 153 154
-0.004003 -0.020680 -0.014814 -0.992601 0.119160 0.023335 152 151 149
-0.005281 -0.049257 0.014571 0.982051 -0.169425 0.082886 195 194 185
-0.003809 -0.019292 -0.016271 -0.994698 0.101688 0.015341 163 160 159
-0.009685 -0.052314 0.018606 -0.992435 0.121419 -0.018148 208 200 194
-0.009421 -0.051628 0.017851 -0.980675 0.171327 -0.094467 197 193 186
-0.003768 -0.018601 -0.016988 -0.999588 0.015891 0.023904 167 167 166
-0.006771 -0.053996 0.019706 0.619151 -0.541216 0.568980 241 237 230
-0.006266 -0.053340 0.018928 0.912324 -0.305135 0.273052 211 202 194
-0.005902 -0.052699 0.018198 0.986481 -0.139011 0.086780 198 202 197
-0.008860 -0.049586 0.015642 -0.976406 0.141243 -0.163346 197 191 183
-0.003849 -0.017931 -0.017696 -0.854278 -0.511390 -0.093210 154 147 144
-0.003730 -0.021496 -0.014105 -0.538927 -0.628141 0.561244 118 107 106
-0.003687 -0.016527 -0.019218 -0.538634 0.383756 -0.750070 156 157 149
-0.002643 -0.016560 -0.019715 -0.356146 0.612633 -0.705578 187 189 182
-0.001016 -0.016611 -0.020446 -0.045830 0.703542 -0.709174 184 184 179
-0.001989 -0.022830 -0.014090 -0.309077 -0.577814 0.755382 142 137 133
-0.003287 -0.017194 -0.019771 -0.653682 0.398245 -0.643506 128 118 121
-0.003738 -0.017765 -0.019108 -0.913855 -0.051183 -0.402802 129 131 129
-0.000563 -0.016961 -0.020742 0.581482 0.546398 -0.602768 179 181 171
-0.009284 -0.051667 0.016443 -0.982386 0.118913 -0.144146 199 193 181
-0.009085 -0.050988 0.015702 -0.981859 0.125236 -0.142364 196 189 183
-0.004080 -0.021356 -0.015539 -0.993384 -0.013054 0.114096 162 156 156
-0.005984 -0.053428 0.017536 0.990201 -0.119378 0.072461 200 201 193
-0.006037 -0.052708 0.016811 0.998608 -0.037136 -0.037471 200 199 196
-0.003802 -0.019311 -0.017687 -0.998267 0.052422 -0.026707 166 163 162
-0.000306 -0.018972 -0.018765 0.998367 -0.056153 -0.010472 174 174 169
-0.005890 -0.052018 0.016074 0.982759 -0.169747 0.073291 192 199 196
-0.005528 -0.050654 0.014608 0.981060 -0.172079 0.088941 193 194 192
-0.005714 -0.051337 0.015342 0.981964 -0.171665 0.079241 200 194 191
-0.003887 -0.019998 -0.016972 -0.991168 0.129806 -0.027135 164 159 157
-0.004002 -0.020691 -0.016241 -0.986184 0.164332 0.020883 155 156 157
-0.000364 -0.020367 -0.017333 0.998137 -0.056757 -0.022395 179 178 172
-0.003808 -0.022119 -0.014828 -0.878824 -0.310640 0.362177 136 129 137
-0.000338 -0.019670 -0.018050 0.998218 -0.057605 -0.015567 172 176 171
-0.006806 -0.054719 0.019015 0.894194 -0.337474 0.294158 234 224 218
-0.005343 -0.049972 0.013873 0.982607 -0.166131 0.082967 192 192 184
-0.009622 -0.053735 0.018602 -0.964315 -0.119718 0.236145 219 223 206
-0.001039 -0.022619 -0.014898 0.594164 -0.585268 0.551752 231 232 224
-0.008715 -0.048223 0.012796 -0.996733 0.069803 0.040641 167 163 159
-0.005175 -0.049289 0.013142 0.984062 -0.161264 0.074945 183 187 182
-0.000385 -0.021066 -0.016618 0.998035 -0.058404 -0.022659 181 178 177
-0.007901 -0.054874 0.019402 -0.036530 -0.643899 0.764238 251 250 246
-0.002108 -0.023010 -0.014278 -0.277122 -0.607189 0.744664 136 130 123
-0.003023 -0.022614 -0.014490 -0.438304 -0.529463 0.726332 99 87 99
-0.008728 -0.048922 0.013509 -0.994741 0.096711 0.033722 193 192 183
-0.008802 -0.049615 0.014231 -0.991825 0.127586 0.002497 193 193 184
-0.006294 -0.054063 0.018237 0.917182 -0.304413 0.257119 206 202 200
-0.009471 -0.052345 0.017151 -0.964898 0.215135 -0.150625 198 194 181
-0.000275 -0.018277 -0.019485 0.998666 -0.049764 -0.013745 173 173 169
-0.000259 -0.017578 -0.020201 0.995228 0.027949 -0.093484 176 174 171
-0.003770 -0.018617 -0.018408 -0.998733 -0.006028 -0.049957 163 164 164
-0.008889 -0.054547 0.019271 -0.459461 -0.544756 0.701525 206 202 189
-0.009778 -0.053017 0.017899 -0.992796 0.118660 0.016598 203 200 188
-0.008898 -0.050304 0.014951 -0.990078 0.132353 -0.047202 194 190 183
-0.000413 -0.021762 -0.015907 0.995308 -0.095291 0.016755 181 182 176
-0.001994 -0.023046 -0.014286 0.085518 -0.705797 0.703233 136 130 123
-0.002333 -0.017345 -0.020772 -0.398978 0.741474 -0.539474 156 154 150
-0.000959 -0.017383 -0.021301 0.136355 0.745291 -0.652648 175 171 166
-0.000497 -0.017786 -0.021261 0.821453 0.363983 -0.439012 173 169 166
-0.002561 -0.023631 -0.014964 -0.259130 -0.685350 0.680549 92 82 75
-0.003640 -0.018647 -0.019832 -0.982252 0.085233 -0.167082 158 156 155
-0.004190 -0.021450 -0.016861 -0.993504 0.113794 -0.000099 159 158 156
-0.004119 -0.022091 -0.016228 -0.980902 -0.069230 0.181768 168 165 165
-0.009879 -0.053728 0.017211 -0.983762 0.171498 -0.052924 199 200 187
-0.001913 -0.023699 -0.015052 0.392920 -0.684996 0.613510 139 118 115
-0.005962 -0.054127 0.016797 0.999234 -0.037433 -0.011407 204 200 196
-0.005781 -0.052050 0.014642 0.980672 -0.175383 0.086736 202 197 191
-0.003725 -0.019340 -0.019118 -0.996286 0.034026 -0.079105 168 165 165
-0.001168 -0.023367 -0.015549 0.613587 -0.568896 0.547604 231 230 225
-0.005963 -0.052732 0.015374 0.980276 -0.180048 0.081492 198 199 193
-0.009004 -0.055267 0.018592 -0.537907 -0.564915 0.625720 209 201 189
-0.000422 -0.021082 -0.018035 0.997932 -0.059263 -0.024894 180 175 174
-0.006853 -0.055450 0.018329 0.431380 -0.640335 0.635518 228 223 217
-0.008895 -0.050326 0.013535 -0.991196 0.132387 -0.001886 197 193 182
-0.005238 -0.050004 0.012440 0.984512 -0.159513 0.072754 185 187 177
-0.000476 -0.022478 -0.016603 0.994629 -0.102570 0.013855 185 182 178
-0.000357 -0.019689 -0.019470 0.997746 -0.065500 -0.014601 175 173 169
-0.008797 -0.049637 0.012811 -0.993996 0.100520 -0.043210 200 194 185
-0.009534 -0.053063 0.016456 -0.942752 0.278126 -0.184020 197 195 183
-0.006152 -0.053414 0.016106 0.993631 -0.026588 -0.109506 201 198 195
-0.009693 -0.054448 0.017901 -0.975678 -0.099337 0.195408 223 218 203
-0.008765 -0.048939 0.012093 -0.998244 -0.012671 -0.057874 172 167 164
-0.008983 -0.051017 0.014256 -0.992232 0.124358 0.003486 199 193 183
-0.000394 -0.020386 -0.018752 0.997846 -0.062947 -0.018437 176 174 168
-0.000443 -0.021782 -0.017320 0.997766 -0.062450 -0.023730 179 177 176
-0.003184 -0.023297 -0.015203 -0.598063 -0.520828 0.609147 105 78 83
-0.003852 -0.022849 -0.015521 -0.628649 -0.517618 0.580406 155 152 153
-0.000324 -0.018993 -0.020189 0.998146 -0.057279 -0.020579 172 171 164
-0.008038 -0.055623 0.018748 -0.083867 -0.674474 0.733519 247 243 235
-0.005584 -0.051368 0.013899 0.980690 -0.172593 0.091970 197 196 190
-0.005403 -0.050685 0.013166 0.983089 -0.164225 0.081025 195 194 186
-0.000310 -0.018294 -0.020904 0.990503 0.041440 -0.131101 172 171 169
-0.003941 -0.020716 -0.017677 -0.984897 0.136552 -0.106449 160 159 159
-0.003802 -0.020035 -0.018403 -0.995371 0.068828 -0.067083 167 162 159
-0.009073 -0.051708 0.014972 -0.989353 0.124898 -0.074719 193 194 180
-0.006346 -0.054774 0.017523 0.921845 -0.292086 0.254730 202 203 194
-0.009232 -0.052399 0.015703 -0.983173 0.119630 -0.138050 195 193 183
-0.003293 -0.018134 -0.020592 -0.828564 0.452644 -0.329539 154 155 153
-0.001966 -0.017689 -0.021620 -0.162572 0.828165 -0.536389 157 156 153
-0.002610 -0.017819 -0.021413 -0.549494 0.740365 -0.387189 158 156 153
-0.006881 -0.056159 0.017624 0.844147 -0.412128 0.342877 220 216 208
-0.005978 -0.054862 0.016105 0.975844 -0.171541 0.135283 198 198 197
-0.008167 -0.056307 0.018035 -0.259852 -0.723133 0.639965 240 237 229
-0.000736 -0.023878 -0.016562 0.822845 -0.423836 0.378535 213 214 207
-0.008824 -0.050356 0.012109 -0.971956 0.187261 -0.142252 197 194 186
-0.008994 -0.051038 0.012839 -0.991128 0.132855 0.003999 196 193 183
-0.006035 -0.053446 0.014672 0.979889 -0.178173 0.089834 198 196 190
-0.009969 -0.054441 0.016510 -0.994093 0.108524 -0.001065 206 197 187
-0.000507 -0.022496 -0.018020 0.997345 -0.068139 -0.025685 182 175 168
-0.001322 -0.024139 -0.016175 0.616042 -0.566558 0.547269 222 227 224
-0.006410 -0.055510 0.016854 0.910514 -0.310088 0.273515 204 202 197
-0.000484 -0.021798 -0.018736 0.997682 -0.063132 -0.025394 176 174 170
-0.000416 -0.020403 -0.020171 0.997536 -0.067321 -0.019728 168 170 169
-0.005304 -0.050718 0.011739 0.984823 -0.158388 0.070958 183 185 176
-0.009613 -0.053775 0.015756 -0.936837 0.299814 -0.180132 199 193 184
-0.008607 -0.049676 0.011368 -0.991374 0.004702 -0.130981 72 69 69
-0.000453 -0.021101 -0.019454 0.997525 -0.067996 -0.017901 174 171 169
-0.004139 -0.022121 -0.017643 -0.981483 0.143670 -0.126690 161 160 156
-0.006228 -0.054129 0.015408 0.996048 -0.088805 -0.001469 194 198 195
-0.009078 -0.051729 0.013558 -0.992080 0.125159 0.010582 193 191 183
-0.005646 -0.052084 0.013200 0.980693 -0.174054 0.089145 195 197 191
-0.000385 -0.019007 -0.021603 0.978113 0.070057 -0.195929 169 169 167
-0.005841 -0.052764 0.013934 0.979476 -0.178049 0.094470 195 197 189
-0.003927 -0.023550 -0.016233 -0.828542 -0.328319 0.453568 160 147 155
-0.000388 -0.019707 -0.020889 0.997533 -0.060710 -0.035259 170 170 164
-0.009153 -0.052421 0.014278 -0.992181 0.124796 0.001708 195 191 183
-0.003493 -0.018685 -0.021281 -0.957275 0.268721 -0.106836 164 166 163
-0.003969 -0.021437 -0.018379 -0.986626 0.130963 -0.097046 164 161 162
-0.009756 -0.055172 0.017206 -0.926868 -0.218847 0.304993 219 218 206
-0.009267 -0.053105 0.014997 -0.970962 0.202489 -0.127407 194 194 181
-0.003598 -0.019375 -0.020557 -0.984574 0.147474 -0.094156 167 167 166
-0.003704 -0.020065 -0.019832 -0.994981 0.073581 -0.067804 167 166 160
-0.000541 -0.023193 -0.017308 0.992361 -0.119679 0.029946 182 180 175
-0.005466 -0.051401 0.012464 0.983641 -0.163097 0.076491 193 192 186
-0.003815 -0.020753 -0.019112 -0.990646 0.110582 -0.079948 165 164 162
-0.004253 -0.022778 -0.016965 -0.973608 -0.053163 0.221947 167 166 160
-0.009184 -0.055882 0.017795 -0.735469 -0.462061 0.495566 208 201 188
-0.003239 -0.024081 -0.015867 -0.611922 -0.493146 0.618351 88 79 80
-0.000623 -0.018448 -0.022181 0.808324 0.303495 -0.504483 168 166 157
