ply
format ascii 1.0
comment Exported by Geomagic
element vertex 684
property float x
property float y
property float z
property float nx
property float ny
property float nz
property uchar red
property uchar green
property uchar blue
end_header
-0.019881 0.057899 -0.015522 0.119602 -0.911209 -0.394200 173 169 159
-0.025002 0.056593 -0.013149 0.124281 -0.826238 -0.549442 181 177 163
-0.027099 0.056028 -0.012216 -0.161887 -0.968802 0.187660 193 188 174
-0.016970 0.058756 -0.017195 0.201014 0.897639 0.392222 158 154 142
-0.040864 0.060261 -0.013782 -0.029020 0.898666 0.437673 242 240 225
-0.031928 0.056739 -0.012143 -0.146669 -0.591362 0.792956 209 204 188
-0.040876 0.059516 -0.013110 -0.105387 0.471600 0.875493 225 219 201
-0.021847 0.057236 -0.014811 0.218569 -0.894524 -0.389942 183 179 168
-0.029543 0.056172 -0.012165 -0.243211 -0.969406 0.033178 196 195 176
-0.028687 0.055795 -0.011971 0.020815 -0.335609 0.941771 191 190 170
-0.037924 0.058414 -0.012755 -0.031987 0.077759 0.996459 174 160 147
-0.028350 0.055878 -0.012187 0.109122 -0.957082 -0.268487 186 182 169
-0.026056 0.056479 -0.013279 0.028121 -0.885780 -0.463252 189 184 171
-0.041881 0.060218 -0.013793 -0.038976 0.670237 0.741123 248 249 238
-0.028029 0.056662 -0.013099 0.073711 -0.860987 -0.503257 182 178 166
-0.021065 0.057834 -0.015782 0.137643 -0.897417 -0.419164 179 179 168
-0.027050 0.056489 -0.013197 -0.069619 -0.870207 -0.487743 185 182 169
-0.019605 0.058507 -0.016871 0.127227 -0.907206 -0.400988 171 170 158
-0.019532 0.058549 -0.016948 0.209567 -0.822273 -0.529101 175 175 163
-0.020447 0.058251 -0.016500 0.093397 -0.890874 -0.444545 182 180 170
-0.031091 0.056404 -0.012404 -0.111279 -0.969588 0.217983 199 201 181
-0.042903 0.060188 -0.013823 -0.037234 0.913264 0.405663 250 247 235
-0.028413 0.055496 -0.012076 -0.353494 -0.657281 -0.665600 185 184 166
-0.028407 0.055494 -0.012076 0.567925 -0.496205 0.656689 185 184 166
-0.023543 0.056775 -0.014461 -0.078564 -0.957570 -0.277287 163 163 151
-0.041914 0.059347 -0.013257 -0.133859 -0.007204 0.990974 235 231 214
-0.020264 0.058532 -0.016960 0.135152 -0.599531 -0.788858 189 186 175
-0.035016 0.057007 -0.012383 -0.096736 -0.343848 0.934029 176 180 178
-0.026096 0.056925 -0.014166 0.015932 -0.986576 -0.162523 184 180 171
-0.025111 0.059194 -0.016699 0.058870 0.982965 -0.174112 212 210 198
-0.023144 0.056682 -0.014551 0.111943 -0.798093 -0.592043 162 160 149
-0.024122 0.059106 -0.016819 0.070876 0.964171 -0.255639 213 207 193
-0.035999 0.057261 -0.012463 -0.194171 -0.226027 0.954573 170 154 139
-0.023166 0.056659 -0.014536 0.031687 -0.887712 -0.459308 162 160 149
-0.038934 0.058222 -0.012836 -0.187785 -0.027199 0.981834 160 145 133
-0.022144 0.058869 -0.017012 0.070051 0.970971 -0.228708 205 203 186
-0.023135 0.059004 -0.016942 0.083178 0.959736 -0.268307 207 206 188
-0.025117 0.056756 -0.014244 -0.053310 -0.998411 -0.018265 173 167 160
-0.026103 0.059275 -0.016606 0.004649 0.958624 -0.284639 209 208 197
-0.021156 0.058770 -0.017131 0.125347 0.936027 -0.328848 197 192 176
-0.027093 0.059348 -0.016480 0.050154 0.976907 -0.207697 209 205 197
-0.028082 0.059430 -0.016357 0.058376 0.975544 -0.211914 204 203 197
-0.035998 0.060059 -0.015343 0.044891 0.989548 -0.137031 104 104 100
-0.027090 0.056834 -0.013924 0.052082 -0.973422 -0.223019 186 181 170
-0.040944 0.060301 -0.014558 0.004874 0.999613 0.027366 227 222 207
-0.037976 0.060170 -0.015046 0.020951 0.994040 -0.106986 195 194 186
-0.029073 0.059516 -0.016254 0.063321 0.978592 -0.195829 206 206 197
-0.035009 0.059986 -0.015493 0.054282 0.990857 -0.123519 191 191 184
-0.033031 0.059849 -0.015770 0.054263 0.988019 -0.144478 144 144 136
-0.034020 0.059920 -0.015637 0.052450 0.991545 -0.118694 128 129 123
-0.036988 0.060118 -0.015219 0.038523 0.989692 -0.137930 147 149 140
-0.030063 0.059598 -0.016138 0.060180 0.982854 -0.174294 203 206 195
-0.038967 0.060214 -0.014905 0.032217 0.993611 -0.108166 109 107 100
-0.032042 0.059761 -0.015893 0.061331 0.985468 -0.158405 203 204 194
-0.031053 0.059678 -0.016021 0.059590 0.982880 -0.174339 207 206 195
-0.039956 0.060265 -0.014758 0.043439 0.993400 -0.106164 220 216 208
-0.043927 0.060154 -0.013815 -0.063238 0.774922 0.628886 247 244 229
-0.039947 0.058516 -0.012982 -0.148444 -0.023149 0.988650 184 166 156
-0.028659 0.056433 -0.013301 0.107839 -0.961525 -0.252667 182 174 164
-0.021238 0.058368 -0.016854 0.082463 -0.850779 -0.519013 178 177 166
-0.021988 0.057966 -0.016295 0.106534 -0.856113 -0.505689 168 169 158
-0.023042 0.057291 -0.015443 0.078586 -0.846674 -0.526276 169 166 155
-0.032906 0.056444 -0.012558 -0.092373 -0.743856 0.661926 224 217 199
-0.021461 0.058704 -0.017333 0.190284 -0.349874 -0.917268 186 184 173
-0.033957 0.056603 -0.012643 -0.127555 -0.731668 0.669621 220 217 199
-0.044951 0.060070 -0.013875 -0.124277 0.381271 0.916072 241 235 222
-0.042960 0.059179 -0.013405 -0.166508 0.115130 0.979296 232 222 202
-0.023104 0.058822 -0.017217 0.028113 0.195448 -0.980311 203 201 188
-0.030170 0.056365 -0.013282 -0.034318 -0.986008 -0.163125 183 176 163
-0.022020 0.058778 -0.017456 0.035415 0.444604 -0.895027 181 180 170
-0.038018 0.057225 -0.012576 0.058227 -0.211320 0.975680 205 195 176
-0.022061 0.058702 -0.017430 -0.011110 -0.613514 -0.789606 169 166 157
-0.032312 0.056391 -0.012952 -0.003816 -0.999393 -0.034638 204 200 181
-0.037048 0.057191 -0.012809 -0.095733 -0.680896 0.726096 186 181 167
-0.035186 0.056638 -0.012679 -0.147720 -0.900721 0.408509 214 212 198
-0.041998 0.060343 -0.015037 0.037125 0.997292 -0.063483 226 219 203
-0.035811 0.056735 -0.012707 -0.257123 -0.923445 0.284845 209 208 192
-0.023271 0.058180 -0.016821 0.092671 -0.732690 -0.674224 162 162 149
-0.045971 0.060019 -0.013971 -0.096232 0.593968 0.798713 244 236 224
-0.039058 0.057236 -0.012610 -0.222097 -0.318400 0.921571 218 208 191
-0.028196 0.056636 -0.014337 0.103269 -0.984532 -0.141538 173 169 159
-0.031078 0.056469 -0.013603 -0.058783 -0.980518 -0.187430 176 173 163
-0.043987 0.059061 -0.013576 -0.186114 0.038800 0.981762 231 222 203
-0.033437 0.056329 -0.013012 -0.086351 -0.996176 0.013334 208 204 184
-0.024612 0.058935 -0.017520 0.258548 0.741210 -0.619484 197 201 184
-0.024402 0.057309 -0.015914 0.150848 -0.852562 -0.500382 165 160 153
-0.025225 0.056897 -0.015335 0.068882 -0.947798 -0.311343 170 160 156
-0.027119 0.056838 -0.014971 0.031854 -0.982841 -0.181684 173 169 158
-0.029077 0.056589 -0.014313 -0.004301 -0.966101 -0.258125 167 165 153
-0.046988 0.059986 -0.014059 -0.067870 0.725642 0.684718 244 238 222
-0.025992 0.056871 -0.015292 -0.013436 -0.980686 -0.195129 171 161 159
-0.024643 0.058732 -0.017510 0.120920 -0.555872 -0.822426 186 186 174
-0.038349 0.056956 -0.012836 -0.016203 -0.904536 0.426091 216 204 185
-0.045020 0.060388 -0.015006 0.054373 0.990513 0.126203 229 225 211
-0.034285 0.056493 -0.013364 -0.127932 -0.985784 -0.108921 199 198 186
-0.024809 0.057757 -0.016640 0.101926 -0.741750 -0.662886 168 164 154
-0.025248 0.059114 -0.017932 0.062467 0.994915 -0.079011 192 194 173
-0.025246 0.059107 -0.017931 0.106180 -0.594984 -0.796693 192 194 173
-0.030466 0.056625 -0.014339 -0.037444 -0.949727 -0.310832 169 167 157
-0.028287 0.056752 -0.014942 0.012728 -0.947693 -0.318930 166 164 155
-0.041111 0.057651 -0.013192 -0.114084 -0.191922 0.974757 220 213 192
-0.046032 0.060428 -0.014997 -0.011690 0.988668 0.149660 232 229 218
-0.030204 0.059399 -0.017266 0.034534 0.967927 -0.248845 201 208 197
-0.026145 0.058981 -0.017701 -0.231858 0.907699 -0.349749 146 148 136
-0.039198 0.057040 -0.013003 -0.338560 -0.825057 0.452392 218 212 192
-0.031194 0.059484 -0.017172 0.049917 0.944528 -0.324614 211 205 194
-0.032184 0.059574 -0.017060 0.044418 0.949771 -0.309776 205 200 193
-0.029216 0.059269 -0.017373 0.114084 0.955410 -0.272352 208 208 194
-0.031078 0.056676 -0.014363 -0.084197 -0.947549 -0.308321 169 169 159
-0.033175 0.059652 -0.016958 0.120334 0.939830 -0.319749 203 201 192
-0.028230 0.059172 -0.017507 0.102242 0.924365 -0.367554 210 209 198
-0.042075 0.057885 -0.013300 -0.123809 -0.155625 0.980027 210 197 174
-0.044060 0.060375 -0.015427 0.016522 0.999834 -0.007636 220 215 203
-0.043070 0.060326 -0.015590 0.035957 0.991537 -0.124747 218 214 204
-0.041091 0.060191 -0.015868 0.049534 0.987439 -0.150035 140 139 134
-0.043060 0.058161 -0.013388 -0.179137 -0.040321 0.982997 214 202 180
-0.042081 0.060264 -0.015737 0.047749 0.990094 -0.132035 196 194 188
-0.040102 0.060124 -0.016013 0.042235 0.988429 -0.145687 162 163 154
-0.039113 0.060067 -0.016161 0.035154 0.989679 -0.138923 201 204 194
-0.035156 0.059802 -0.016727 0.040352 0.980156 -0.194076 204 201 191
-0.034167 0.059727 -0.016857 0.053977 0.983062 -0.175146 201 202 192
-0.025638 0.057184 -0.016050 0.068069 -0.852632 -0.518060 168 161 152
-0.036145 0.059876 -0.016598 0.040582 0.983563 -0.175941 207 203 195
-0.035781 0.056777 -0.013516 -0.155674 -0.975858 -0.153183 200 195 178
-0.038124 0.060000 -0.016317 0.044508 0.979978 -0.194066 204 202 192
-0.037135 0.059934 -0.016461 0.035968 0.982703 -0.181660 202 201 191
-0.026177 0.058920 -0.017729 -0.112369 -0.441256 -0.890318 146 148 136
-0.045044 0.058853 -0.013757 -0.087946 -0.030097 0.995671 222 214 197
-0.048018 0.059848 -0.014148 -0.141633 0.244256 0.959312 241 233 219
-0.032290 0.056791 -0.014331 -0.079573 -0.940122 -0.331419 179 177 164
-0.037601 0.056947 -0.013414 0.010272 -0.997822 -0.065163 208 206 186
-0.047043 0.060424 -0.015016 -0.011158 0.971532 0.236644 237 230 222
-0.027142 0.058680 -0.017446 -0.047046 -0.040360 -0.998078 209 208 197
-0.033379 0.056824 -0.014255 -0.020798 -0.927581 -0.373044 192 187 169
-0.026487 0.057138 -0.016023 -0.033683 -0.880205 -0.473398 168 161 153
-0.026150 0.057885 -0.016882 0.002875 -0.694503 -0.719483 177 173 166
-0.033230 0.056942 -0.014505 -0.049251 -0.909063 -0.413738 189 185 168
-0.038827 0.056873 -0.013281 -0.075379 -0.996575 -0.033986 217 210 189
-0.048052 0.060415 -0.015035 -0.011064 0.988148 0.153102 235 237 220
-0.027422 0.057411 -0.016315 -0.003456 -0.823485 -0.567328 167 160 153
-0.040258 0.057157 -0.013372 -0.125290 -0.789285 0.601108 218 215 197
-0.049057 0.059715 -0.014272 -0.164002 0.383360 0.908922 242 236 227
-0.046087 0.058708 -0.013876 -0.103858 -0.010334 0.994539 217 203 183
-0.031370 0.057055 -0.015275 -0.060994 -0.904383 -0.422341 166 162 154
-0.029267 0.057239 -0.015914 -0.046326 -0.873105 -0.485325 167 161 152
-0.028736 0.058997 -0.017902 0.325733 0.461000 -0.825455 205 206 193
-0.034439 0.057087 -0.014762 -0.084064 -0.914606 -0.395511 187 183 171
-0.041313 0.057138 -0.013377 -0.022492 -0.713745 0.700045 218 218 193
-0.049072 0.060365 -0.015045 -0.133599 0.755236 0.641692 243 240 231
-0.033254 0.057203 -0.015189 -0.072287 -0.912251 -0.403203 186 180 168
-0.039703 0.057050 -0.013756 -0.103152 -0.987236 -0.121352 211 206 191
-0.028324 0.058366 -0.017511 0.123906 -0.656499 -0.744081 181 179 171
-0.042357 0.057239 -0.013454 -0.126071 -0.753966 0.644702 223 212 196
-0.050089 0.060323 -0.015077 -0.043365 0.887135 0.459468 186 184 175
-0.043706 0.057577 -0.013633 -0.429287 -0.564590 0.704947 215 207 190
-0.043221 0.057291 -0.013463 -0.320040 -0.645042 0.693899 219 217 201
-0.029489 0.059116 -0.018222 0.235319 0.823497 -0.516215 196 199 182
-0.050099 0.059587 -0.014415 -0.123989 0.427827 0.895316 242 231 211
-0.031773 0.059179 -0.017848 -0.102940 0.635458 -0.765243 194 193 185
-0.041513 0.057018 -0.013659 -0.031990 -0.999348 -0.016709 209 214 189
-0.037185 0.057499 -0.015059 -0.056100 -0.921289 -0.384811 185 182 167
-0.040687 0.057141 -0.014003 0.031648 -0.982948 -0.181135 198 203 179
-0.029471 0.058984 -0.018251 0.167264 -0.426509 -0.888882 196 199 182
-0.038730 0.057398 -0.014709 -0.014188 -0.924757 -0.380292 192 189 172
-0.043208 0.057250 -0.013641 -0.260499 -0.964873 -0.034070 219 217 201
-0.051114 0.060282 -0.015076 -0.043074 0.930113 0.364740 245 242 228
-0.030291 0.059135 -0.018268 -0.066242 0.494679 -0.866548 202 205 185
-0.035949 0.057630 -0.015580 -0.086785 -0.906680 -0.412793 181 176 164
-0.031093 0.059102 -0.018173 -0.230115 0.487218 -0.842417 203 201 192
-0.044822 0.057699 -0.013916 -0.050774 -0.781682 0.621606 219 203 177
-0.034309 0.059528 -0.017986 0.207583 0.890353 -0.405193 200 199 191
-0.035299 0.059573 -0.017855 0.015522 0.959989 -0.279607 202 202 191
-0.047170 0.058176 -0.013966 -0.075666 -0.095508 0.992549 188 181 162
-0.034673 0.057798 -0.016203 -0.079687 -0.888134 -0.452625 177 174 164
-0.037280 0.059694 -0.017591 0.022900 0.956867 -0.289620 203 201 195
-0.036290 0.059630 -0.017733 -0.008560 0.917530 -0.397574 204 202 193
-0.046184 0.060284 -0.016334 0.014391 0.991574 -0.128744 213 207 195
-0.047173 0.060323 -0.016171 0.021640 0.990771 -0.133804 213 211 198
-0.045195 0.060246 -0.016506 0.015289 0.989776 -0.141811 207 206 200
-0.042082 0.057218 -0.014077 -0.129677 -0.943288 -0.305601 212 203 188
-0.033369 0.059172 -0.017892 0.194716 0.567927 -0.799715 200 195 190
-0.038270 0.059760 -0.017465 0.029000 0.936943 -0.348275 196 199 189
-0.040249 0.059931 -0.017229 0.051657 0.982551 -0.178681 198 196 186
-0.044206 0.060203 -0.016680 0.029001 0.987031 -0.157887 206 198 191
-0.041239 0.059999 -0.017099 0.045970 0.985441 -0.163685 203 202 190
-0.049152 0.060409 -0.015861 0.021226 0.998057 -0.058590 219 217 206
-0.043217 0.060141 -0.016831 0.045285 0.983311 -0.176210 201 201 193
-0.042228 0.060067 -0.016964 0.042441 0.983665 -0.174937 204 202 194
-0.039260 0.059840 -0.017361 0.105001 0.954393 -0.279478 199 193 186
-0.045411 0.057675 -0.013868 -0.102733 -0.456443 0.883802 219 201 176
-0.048163 0.060364 -0.016033 0.019725 0.993973 -0.107826 220 211 204
-0.031266 0.058773 -0.017958 -0.111503 -0.605042 -0.788347 178 174 167
-0.032589 0.057910 -0.016808 -0.044817 -0.846468 -0.530549 161 160 151
-0.049140 0.058825 -0.014294 -0.156307 -0.011073 0.987646 213 211 180
-0.048175 0.058427 -0.014098 -0.122570 -0.160045 0.979470 177 167 145
-0.041301 0.057284 -0.014402 -0.032963 -0.915596 -0.400747 195 184 171
-0.052130 0.060237 -0.015149 -0.118645 0.643895 0.755859 239 236 223
-0.051149 0.059397 -0.014561 -0.132620 0.105157 0.985573 236 225 205
-0.039844 0.057600 -0.015101 -0.015392 -0.912678 -0.408389 189 183 166
-0.043940 0.057594 -0.014257 -0.163270 -0.967800 -0.191587 214 216 190
-0.033539 0.058120 -0.017020 -0.056262 -0.838379 -0.542175 174 171 160
-0.032877 0.058687 -0.017760 -0.018924 -0.500793 -0.865360 186 182 177
-0.046375 0.057795 -0.014093 -0.134912 -0.772772 0.620179 216 203 178
-0.037287 0.058071 -0.016276 -0.054511 -0.899339 -0.433841 179 173 165
-0.038322 0.057997 -0.016005 -0.034196 -0.906958 -0.419829 180 176 165
-0.040737 0.057678 -0.015215 -0.024551 -0.903475 -0.427937 185 176 163
-0.033683 0.058814 -0.017879 0.043903 -0.636933 -0.769669 194 190 183
-0.053149 0.060188 -0.015208 -0.064852 0.705875 0.705362 244 239 224
-0.045383 0.057544 -0.014159 -0.015420 -0.999518 0.026937 217 204 179
-0.039220 0.057969 -0.015887 -0.016845 -0.906605 -0.421645 181 176 162
-0.041545 0.057720 -0.015212 -0.076358 -0.894427 -0.440647 182 176 164
-0.034643 0.058544 -0.017533 -0.032804 -0.824299 -0.565203 174 167 164
-0.036179 0.058378 -0.017060 -0.060642 -0.874574 -0.481084 169 169 158
-0.052172 0.059300 -0.014678 -0.135469 0.222314 0.965518 226 212 191
-0.042829 0.057844 -0.015182 -0.105956 -0.905791 -0.410263 189 187 173
-0.044638 0.057806 -0.014835 0.034953 -0.954733 -0.295404 214 209 187
-0.034718 0.059235 -0.018383 0.254552 -0.550951 -0.794768 191 189 180
-0.038202 0.058322 -0.016727 -0.020646 -0.903361 -0.428384 175 171 159
-0.054173 0.060138 -0.015238 -0.070906 0.743735 0.664702 242 240 220
-0.043728 0.057955 -0.015221 -0.047664 -0.920683 -0.387390 192 194 170
-0.049232 0.058197 -0.014319 -0.189999 -0.022026 0.981537 167 150 127
-0.039955 0.058173 -0.016309 -0.019627 -0.912647 -0.408276 176 167 154
-0.039051 0.058306 -0.016642 -0.010964 -0.911981 -0.410086 175 172 158
-0.047273 0.057634 -0.014347 0.050855 -0.897033 0.439028 204 196 179
-0.043341 0.058130 -0.015682 -0.067351 -0.917597 -0.391765 186 182 164
-0.035897 0.059325 -0.018465 -0.390601 0.343409 -0.854108 190 193 183
-0.041103 0.058169 -0.016203 -0.053794 -0.910335 -0.410362 172 167 153
-0.037529 0.058731 -0.017546 -0.057680 -0.803380 -0.592666 162 162 153
-0.044090 0.058121 -0.015581 -0.011238 -0.927596 -0.373415 193 189 167
-0.036974 0.059150 -0.018126 -0.214422 -0.148451 -0.965394 104 102 94
-0.045260 0.057858 -0.015077 0.060061 -0.929104 -0.364910 207 200 179
-0.041934 0.058195 -0.016121 -0.077287 -0.909890 -0.407586 173 170 157
-0.053206 0.059200 -0.014804 -0.161312 0.041382 0.986035 213 206 186
-0.035819 0.059187 -0.018438 -0.173025 -0.745226 -0.643972 183 184 173
-0.042774 0.058228 -0.016025 -0.073900 -0.918266 -0.389007 182 174 158
-0.055202 0.060065 -0.015308 -0.103635 0.691425 0.714977 248 246 225
-0.036741 0.059028 -0.018117 -0.167774 -0.664741 -0.727992 129 127 119
-0.046212 0.057722 -0.014822 0.026887 -0.984003 -0.176115 214 204 180
-0.044899 0.058049 -0.015444 0.052793 -0.923636 -0.379619 201 197 178
-0.038380 0.059376 -0.018169 0.240224 0.453032 -0.858519 189 194 184
-0.048198 0.057548 -0.014310 0.096634 -0.836628 0.539180 196 191 175
-0.035446 0.059470 -0.019041 0.504204 0.634251 -0.586091 171 177 165
-0.035450 0.059467 -0.019039 -0.324584 -0.764648 -0.556739 171 177 165
-0.039598 0.058585 -0.017300 0.010645 -0.923178 -0.384225 174 169 157
-0.043523 0.058386 -0.016312 -0.033967 -0.933935 -0.355826 179 172 159
-0.041546 0.058462 -0.016816 -0.063337 -0.921476 -0.383237 168 168 156
-0.041379 0.059812 -0.018241 0.043650 0.935071 -0.351762 201 203 192
-0.040390 0.059718 -0.018356 0.047398 0.940244 -0.337187 192 200 189
-0.038760 0.058841 -0.017807 0.113625 -0.864499 -0.489623 172 170 159
-0.039401 0.059624 -0.018482 0.156439 0.903940 -0.398019 193 193 181
-0.042371 0.059852 -0.018115 0.022753 0.968205 -0.249118 201 200 188
-0.042391 0.058476 -0.016712 -0.057221 -0.927532 -0.369337 171 169 157
-0.050288 0.057932 -0.014519 -0.136531 -0.028300 0.990232 149 139 120
-0.052267 0.060385 -0.016607 -0.004030 0.998492 -0.054749 220 211 199
-0.053255 0.060362 -0.016378 -0.032578 0.987881 0.151756 219 214 202
-0.051264 0.058189 -0.014581 -0.117144 0.007206 0.993089 151 142 128
-0.046330 0.060100 -0.017566 0.017100 0.985676 -0.167776 202 202 194
-0.051277 0.060339 -0.016775 0.019120 0.987053 -0.159254 211 207 197
-0.049298 0.060246 -0.017098 0.024739 0.986344 -0.162833 208 203 196
-0.043363 0.059917 -0.018005 0.067833 0.974445 -0.214142 199 194 189
-0.050288 0.060293 -0.016942 0.021303 0.987827 -0.154096 208 207 196
-0.049236 0.057526 -0.014343 -0.089135 -0.405451 0.909761 163 154 135
-0.048309 0.060193 -0.017257 0.022064 0.986250 -0.163780 207 205 197
-0.056226 0.059981 -0.015388 -0.084018 0.838794 0.537928 242 242 226
-0.047320 0.060144 -0.017417 0.020434 0.985752 -0.166963 207 202 193
-0.045342 0.060049 -0.017741 0.028038 0.981883 -0.187404 191 192 184
-0.044353 0.059986 -0.017896 0.036143 0.981318 -0.188969 204 196 181
-0.052247 0.058433 -0.014716 -0.276766 -0.075776 0.957944 152 147 133
-0.040644 0.058633 -0.017374 -0.039191 -0.924299 -0.379654 169 163 156
-0.047577 0.057649 -0.014921 0.089917 -0.967904 -0.234686 205 204 183
-0.044651 0.058388 -0.016291 0.021232 -0.934824 -0.354476 183 179 163
-0.045660 0.058160 -0.015856 0.058982 -0.925587 -0.373912 197 188 167
-0.054266 0.058991 -0.014933 -0.097666 0.010131 0.995168 215 212 187
-0.054267 0.060381 -0.016436 0.007205 0.981658 0.190516 217 216 197
-0.048803 0.057425 -0.014629 0.121608 -0.983869 -0.131201 203 202 183
-0.046623 0.058077 -0.015829 0.059449 -0.922941 -0.380322 200 193 172
-0.057262 0.059899 -0.015484 -0.117934 0.374532 0.919684 247 237 223
-0.044091 0.058642 -0.016963 -0.007039 -0.939268 -0.343112 177 170 154
-0.055277 0.060382 -0.016409 -0.036291 0.992869 0.113553 224 220 205
-0.039019 0.059213 -0.018648 0.293853 -0.754216 -0.587204 170 169 157
-0.043354 0.058798 -0.017449 -0.021570 -0.934039 -0.356521 173 165 155
-0.055293 0.058885 -0.015052 -0.034620 -0.093034 0.995061 213 208 179
-0.041750 0.058934 -0.017952 -0.056050 -0.908265 -0.414626 165 164 153
-0.049654 0.057309 -0.014645 0.088341 -0.996090 -0.001275 200 192 173
-0.039680 0.059082 -0.018561 0.054568 -0.893529 -0.445677 168 166 155
-0.050483 0.057364 -0.014555 0.033584 -0.689323 0.723675 172 166 149
-0.039525 0.059348 -0.018881 0.284912 0.239955 -0.928034 179 177 165
-0.044605 0.058735 -0.017236 0.021036 -0.943655 -0.330260 178 169 158
-0.046425 0.058387 -0.016520 0.051697 -0.924590 -0.377438 186 183 165
-0.045561 0.058588 -0.016925 0.040532 -0.936563 -0.348150 181 178 158
-0.044085 0.058822 -0.017477 -0.000704 -0.945848 -0.324610 173 168 156
-0.058282 0.059821 -0.015566 -0.094987 0.617568 0.780761 242 236 219
-0.048489 0.057874 -0.015663 0.092517 -0.912643 -0.398151 200 195 177
-0.052342 0.057783 -0.014774 -0.300972 -0.036621 0.952929 183 165 160
-0.040429 0.059417 -0.018951 -0.029025 0.765141 -0.643208 185 182 172
-0.041557 0.059423 -0.018761 -0.003677 0.089584 -0.995973 163 162 151
-0.051337 0.057239 -0.014509 -0.112691 -0.672110 0.731826 212 212 190
-0.047613 0.058236 -0.016303 0.054070 -0.917349 -0.394395 192 187 167
-0.040647 0.059218 -0.018799 -0.147969 -0.828483 -0.540112 163 156 147
-0.057311 0.060331 -0.016470 -0.027460 0.998582 0.045601 227 225 210
-0.040243 0.059309 -0.019050 -0.004499 -0.444110 -0.895960 186 182 172
-0.051982 0.057422 -0.014684 -0.378613 -0.564817 0.733236 209 204 184
-0.044451 0.058928 -0.017804 0.015508 -0.946411 -0.322589 171 165 155
-0.050318 0.057331 -0.014961 0.073396 -0.971426 -0.225712 207 206 188
-0.052618 0.057677 -0.014948 -0.463687 -0.532741 0.707942 210 189 178
-0.051309 0.057223 -0.014761 -0.027603 -0.989481 -0.142002 212 212 190
-0.043871 0.059067 -0.018200 0.023515 -0.940881 -0.337919 169 163 155
-0.042782 0.059584 -0.018974 0.348350 0.550056 -0.759006 189 186 176
-0.059314 0.059702 -0.015647 -0.127491 0.420901 0.898103 219 211 201
-0.049575 0.057761 -0.015714 0.117791 -0.907151 -0.403982 200 195 176
-0.058330 0.060303 -0.016515 -0.045739 0.984415 0.169809 184 181 169
-0.045283 0.058915 -0.017835 0.025223 -0.942422 -0.333472 171 169 156
-0.042717 0.059405 -0.018887 0.134723 -0.829029 -0.542733 167 164 155
-0.043507 0.059710 -0.019161 0.069006 0.958291 -0.277338 197 194 176
-0.057350 0.058791 -0.015330 -0.140885 -0.056729 0.988399 192 195 176
-0.046794 0.058744 -0.017496 0.029181 -0.931872 -0.361611 179 173 157
-0.046475 0.059886 -0.018726 -0.020646 0.908612 -0.417130 171 168 161
-0.045486 0.059824 -0.018874 0.004897 0.934398 -0.356195 198 201 192
-0.044496 0.059765 -0.019021 -0.024952 0.934302 -0.355607 185 188 179
-0.047465 0.059932 -0.018574 -0.031084 0.906145 -0.421824 106 104 101
-0.048890 0.058279 -0.016594 0.092239 -0.907431 -0.409953 190 182 169
-0.054391 0.060253 -0.017482 0.014622 0.983951 -0.177840 209 206 193
-0.053402 0.060216 -0.017656 0.006756 0.983378 -0.181445 209 205 193
-0.048455 0.059969 -0.018438 0.004806 0.871067 -0.491140 185 181 175
-0.056363 0.058453 -0.015243 -0.120345 -0.278603 0.952837 212 207 185
-0.052413 0.060175 -0.017832 0.016944 0.979581 -0.200336 209 202 191
-0.049445 0.060019 -0.018296 0.100581 0.905425 -0.412417 200 202 193
-0.051423 0.060124 -0.017990 0.016591 0.975778 -0.218134 203 201 193
-0.050434 0.060072 -0.018145 0.018393 0.976567 -0.214426 207 201 195
-0.058346 0.059048 -0.015446 -0.128530 -0.025908 0.991367 211 211 191
-0.055367 0.058131 -0.015140 -0.005343 -0.390231 0.920701 217 212 191
-0.056369 0.060292 -0.017136 -0.018647 0.995191 -0.096164 214 210 197
-0.055380 0.060283 -0.017343 -0.006749 0.992271 -0.123910 209 206 195
-0.059347 0.060266 -0.016530 -0.045152 0.951902 0.303060 227 225 207
-0.048238 0.058557 -0.017114 0.052193 -0.925375 -0.375444 182 177 163
-0.052359 0.057465 -0.015169 -0.196205 -0.977613 -0.075998 209 206 187
-0.060350 0.059583 -0.015749 -0.146174 0.568466 0.809617 233 224 210
-0.053357 0.057751 -0.015396 -0.276450 -0.833552 0.478295 213 207 190
-0.054698 0.057991 -0.015368 0.135550 -0.628038 0.766286 222 213 192
-0.052863 0.057578 -0.015379 -0.231277 -0.972837 -0.009988 214 206 187
-0.060364 0.060222 -0.016573 -0.112085 0.866610 0.486235 222 219 206
-0.050654 0.057911 -0.016292 0.069337 -0.909593 -0.409676 189 187 166
-0.044295 0.059611 -0.019395 -0.132798 0.393757 -0.909571 172 173 164
-0.044856 0.059346 -0.019022 0.004687 -0.911600 -0.411052 166 163 151
-0.043672 0.059577 -0.019528 0.147456 -0.022223 -0.988820 170 166 160
-0.043680 0.059563 -0.019514 0.145664 -0.755976 -0.638186 170 166 160
-0.050114 0.058287 -0.016962 0.109741 -0.908562 -0.403078 179 176 159
-0.048070 0.058908 -0.018025 0.030466 -0.920297 -0.390034 168 172 157
-0.061385 0.059477 -0.015869 -0.145291 0.663168 0.734233 222 213 202
-0.049079 0.058700 -0.017651 0.087050 -0.914777 -0.394469 175 171 158
-0.046223 0.059570 -0.019157 -0.130655 0.158017 -0.978754 185 182 176
-0.045392 0.059524 -0.019340 -0.122511 -0.313228 -0.941742 183 184 172
-0.061394 0.060153 -0.016656 -0.076725 0.994591 0.070020 243 241 218
-0.046098 0.059357 -0.019049 -0.052738 -0.811474 -0.582005 167 167 153
-0.047389 0.059545 -0.019017 -0.111782 0.286018 -0.951682 187 181 176
-0.051594 0.058000 -0.016608 0.016136 -0.924152 -0.381685 185 181 166
-0.052589 0.057868 -0.016296 -0.013763 -0.936817 -0.349548 190 191 172
-0.047209 0.059308 -0.018904 -0.040250 -0.733704 -0.678276 180 175 167
-0.053231 0.057814 -0.016131 -0.036217 -0.961629 -0.271954 202 196 179
-0.048423 0.059499 -0.018876 -0.065686 0.129895 -0.989350 176 172 163
-0.050910 0.058284 -0.017167 0.080782 -0.914379 -0.396719 181 173 158
-0.048581 0.059123 -0.018517 -0.005588 -0.837041 -0.547113 166 170 158
-0.047974 0.059301 -0.018854 -0.079174 -0.701523 -0.708235 170 169 158
-0.055387 0.057557 -0.015573 0.131969 -0.863772 0.486294 210 204 191
-0.062405 0.059400 -0.015991 -0.142132 0.512786 0.846670 212 201 194
-0.062415 0.060075 -0.016713 -0.082014 0.944235 0.318896 247 242 224
-0.054202 0.057767 -0.016099 0.085398 -0.991478 -0.098387 208 203 189
-0.053012 0.058135 -0.016954 0.023389 -0.929313 -0.368552 186 183 167
-0.049776 0.059571 -0.019156 0.382350 0.338962 -0.859600 196 190 180
-0.049518 0.059226 -0.018861 0.181607 -0.800419 -0.571270 171 166 156
-0.057505 0.057659 -0.015600 -0.082891 -0.604078 0.792602 219 212 190
-0.051568 0.059864 -0.019093 0.003225 0.931190 -0.364520 202 199 192
-0.050579 0.059811 -0.019247 0.084314 0.869365 -0.486925 207 202 190
-0.061462 0.060195 -0.017364 -0.033607 0.999088 -0.026333 224 219 203
-0.058503 0.057978 -0.015732 -0.195403 -0.333459 0.922292 223 217 189
-0.063435 0.060004 -0.016767 -0.077038 0.986764 0.142697 247 244 226
-0.052558 0.059920 -0.018960 0.003336 0.936405 -0.350905 202 201 191
-0.053548 0.059976 -0.018813 0.063364 0.949049 -0.308693 202 199 189
-0.057505 0.060156 -0.018172 -0.008931 0.990728 -0.135565 208 204 193
-0.050565 0.058751 -0.018199 0.096739 -0.906130 -0.411789 171 167 154
-0.058494 0.060167 -0.017986 -0.018654 0.994180 -0.106102 211 205 196
-0.054537 0.060026 -0.018670 0.014470 0.976654 -0.214331 200 202 194
-0.061454 0.058697 -0.015870 -0.114765 -0.233845 0.965477 193 188 155
-0.056516 0.060132 -0.018369 0.009591 0.984696 -0.174018 200 202 192
-0.059483 0.060172 -0.017792 -0.014519 0.993557 -0.112401 211 210 194
-0.055527 0.060085 -0.018531 0.032160 0.978868 -0.201947 203 200 193
-0.060463 0.058460 -0.015850 -0.082323 -0.373272 0.924063 210 199 182
-0.055314 0.057527 -0.015985 0.173029 -0.984099 -0.040136 207 200 182
-0.060471 0.060180 -0.017615 -0.010947 0.992360 -0.122892 215 212 199
-0.052390 0.058343 -0.017460 0.010145 -0.926424 -0.376345 176 173 156
-0.056673 0.057558 -0.015810 -0.017657 -0.911737 0.410394 210 209 189
-0.051672 0.058529 -0.017881 0.049629 -0.914777 -0.400898 174 169 157
-0.053817 0.058118 -0.017030 0.071501 -0.929046 -0.362989 188 182 167
-0.063453 0.059137 -0.016145 -0.196061 0.292878 0.935832 239 226 201
-0.064473 0.059924 -0.016785 -0.161354 0.723496 0.671207 249 245 231
-0.053273 0.058551 -0.018009 0.032458 -0.919368 -0.392058 173 167 154
-0.058415 0.057511 -0.015883 -0.255542 -0.845889 0.468157 204 202 186
-0.054958 0.058010 -0.017138 0.126794 -0.914729 -0.383660 185 183 167
-0.052470 0.058735 -0.018432 0.021248 -0.910014 -0.414032 170 166 153
-0.057899 0.057358 -0.015929 -0.067195 -0.938370 0.339037 196 196 177
-0.050602 0.059499 -0.019638 0.204436 0.188778 -0.960504 184 181 172
-0.051276 0.059552 -0.019563 -0.061628 0.359501 -0.931107 182 182 172
-0.050612 0.059417 -0.019596 0.175632 -0.649190 -0.740072 160 157 148
-0.065492 0.059848 -0.016941 -0.104311 0.883100 0.457441 248 241 228
-0.059322 0.057725 -0.016087 -0.109501 -0.718304 0.687058 209 204 186
-0.051895 0.059157 -0.019233 0.029439 -0.809180 -0.586822 97 94 90
-0.057229 0.057387 -0.016338 0.092410 -0.977024 -0.192055 196 194 173
-0.054498 0.058498 -0.018042 0.074696 -0.909394 -0.409175 174 170 157
-0.056152 0.057759 -0.016950 0.108985 -0.934589 -0.338622 185 183 166
-0.052912 0.059576 -0.019576 0.222888 0.259366 -0.939708 181 176 163
-0.066519 0.059751 -0.017015 -0.100003 0.353428 0.930101 246 239 229
-0.053044 0.059140 -0.019266 0.098081 -0.823639 -0.558569 114 110 102
-0.058335 0.057406 -0.016419 -0.025078 -0.997938 -0.059081 201 198 178
-0.055623 0.058425 -0.018130 0.100168 -0.893338 -0.438080 179 172 157
-0.054189 0.058905 -0.018943 0.058548 -0.911267 -0.407634 169 167 153
-0.056660 0.059920 -0.019482 0.017354 0.981538 -0.190482 196 205 190
-0.055671 0.059863 -0.019630 0.032738 0.987039 -0.157107 201 202 192
-0.065565 0.058741 -0.016440 -0.153988 0.024094 0.987779 220 214 184
-0.054841 0.058779 -0.018724 0.064497 -0.912462 -0.404046 168 164 152
-0.054683 0.059753 -0.019753 0.082861 0.980942 -0.175747 204 200 191
-0.053694 0.059680 -0.019910 0.098004 0.954608 -0.281282 200 193 180
-0.057651 0.059953 -0.019372 0.009487 0.983344 -0.181508 202 201 189
-0.061608 0.060045 -0.018640 -0.012866 0.989129 -0.146485 206 205 193
-0.062592 0.057932 -0.016284 -0.102897 -0.485748 0.868022 205 200 185
-0.059629 0.060011 -0.019027 -0.013241 0.989931 -0.140930 205 204 190
-0.063580 0.058129 -0.016286 -0.090464 -0.416661 0.904550 199 189 170
-0.064569 0.058417 -0.016371 -0.142905 -0.216380 0.965794 185 178 159
-0.058640 0.059986 -0.019211 0.002123 0.985334 -0.170623 200 202 189
-0.060618 0.060024 -0.018840 -0.010452 0.989999 -0.140686 208 205 192
-0.064575 0.060105 -0.018101 -0.048536 0.998793 0.007451 219 211 199
-0.062597 0.060064 -0.018478 -0.005625 0.987874 -0.155156 211 207 191
-0.063586 0.060088 -0.018299 -0.010213 0.987041 -0.160142 213 210 197
-0.056857 0.058026 -0.017666 0.090013 -0.898570 -0.429501 177 175 161
-0.067557 0.059654 -0.017089 -0.103047 0.353080 0.929901 246 239 230
-0.061582 0.057599 -0.016310 0.037740 -0.153294 0.987460 212 208 197
-0.054730 0.059033 -0.019315 0.062069 -0.911588 -0.406393 175 169 159
-0.065589 0.060061 -0.018093 -0.048439 0.997881 0.043440 216 214 201
-0.055594 0.058864 -0.019047 0.076323 -0.906613 -0.415002 175 169 156
-0.066576 0.058721 -0.016630 -0.133832 0.353580 0.925781 220 210 180
-0.054030 0.059608 -0.020208 0.392121 0.204008 -0.897007 204 197 177
-0.056545 0.058571 -0.018628 0.114563 -0.889436 -0.442469 180 178 160
-0.068583 0.059565 -0.017175 -0.119381 0.727186 0.675980 248 242 230
-0.054100 0.059469 -0.020130 0.203192 -0.769540 -0.605410 165 162 148
-0.059593 0.057245 -0.016814 0.178400 -0.946895 0.267516 194 188 171
-0.066614 0.060005 -0.018158 -0.053870 0.998112 -0.029487 219 217 209
-0.060179 0.057178 -0.016725 0.190208 -0.785932 0.588330 191 187 171
-0.057800 0.058249 -0.018386 0.152448 -0.889969 -0.429784 179 172 157
-0.069612 0.059469 -0.017257 -0.125675 0.542437 0.830644 226 224 209
-0.055051 0.059710 -0.020614 0.433267 -0.128077 -0.892118 75 103 118
-0.055359 0.059471 -0.020352 0.097224 -0.875768 -0.472842 169 163 151
-0.059939 0.057128 -0.017028 0.298116 -0.952676 -0.059464 183 177 160
-0.059438 0.057366 -0.017384 0.235346 -0.903055 -0.359310 181 174 158
-0.061642 0.056867 -0.016431 0.038805 -0.848598 0.527613 197 184 168
-0.056904 0.059011 -0.019631 0.096445 -0.877004 -0.470705 174 172 161
-0.062660 0.056783 -0.016321 0.101929 -0.930815 0.350990 181 175 155
-0.060698 0.056769 -0.016726 -0.133826 -0.986667 0.092628 178 175 162
-0.062775 0.056770 -0.016300 -0.394378 0.557986 0.730148 181 175 155
-0.062788 0.056765 -0.016302 0.066252 -0.929563 -0.362661 181 175 155
-0.060688 0.056841 -0.016825 0.229732 -0.953387 -0.195645 176 173 161
-0.056614 0.059585 -0.020505 -0.150859 -0.034162 -0.987964 128 122 119
-0.060599 0.056742 -0.016781 0.702500 0.509671 0.496718 178 175 162
-0.070645 0.059363 -0.017356 -0.141637 0.574574 0.806104 253 248 231
-0.060590 0.056737 -0.016790 0.910486 -0.400384 -0.103478 178 175 162
-0.062113 0.056813 -0.016586 -0.063421 -0.964341 -0.256952 186 178 161
-0.067682 0.058160 -0.016794 -0.137119 -0.271904 0.952506 205 191 169
-0.055444 0.059826 -0.021077 -0.311024 0.725118 -0.614385 148 168 165
-0.057795 0.059746 -0.020508 0.040048 0.914352 -0.402934 197 197 183
-0.055444 0.059812 -0.021074 -0.052143 -0.688922 -0.722957 148 168 165
-0.058786 0.059785 -0.020359 -0.011603 0.946110 -0.323639 209 201 187
-0.059776 0.059820 -0.020190 -0.023422 0.950494 -0.309861 205 204 193
-0.060765 0.059838 -0.020010 0.007159 0.975975 -0.217767 203 202 189
-0.068680 0.059881 -0.018404 -0.058330 0.998297 -0.000883 224 221 206
-0.065707 0.057622 -0.016726 -0.140408 -0.466728 0.873184 206 201 181
-0.063729 0.057289 -0.016806 -0.093415 -0.615391 0.782666 195 199 176
-0.064716 0.057432 -0.016766 -0.079228 -0.658720 0.748206 207 200 176
-0.061754 0.059834 -0.019840 -0.045172 0.960385 -0.274994 205 201 193
-0.067689 0.059891 -0.018659 -0.048438 0.988087 -0.146069 217 215 204
-0.066691 0.057845 -0.016788 -0.150341 -0.579364 0.801083 208 199 181
-0.065711 0.059907 -0.019096 -0.027518 0.981802 -0.187903 208 205 196
-0.064721 0.059892 -0.019288 -0.019303 0.980739 -0.194365 204 204 193
-0.062743 0.059847 -0.019658 0.007689 0.965203 -0.261390 203 202 187
-0.062725 0.057096 -0.016861 -0.194942 -0.249049 0.948668 189 183 160
-0.060208 0.057280 -0.017577 0.148576 -0.871113 -0.468068 176 171 155
-0.063732 0.059870 -0.019483 -0.013068 0.981263 -0.192227 207 201 192
-0.059191 0.058216 -0.018758 0.122237 -0.853845 -0.505971 170 166 156
-0.069660 0.058760 -0.017132 -0.113061 0.179388 0.977260 202 214 197
-0.062748 0.056960 -0.016747 -0.257522 -0.962439 -0.085992 173 169 155
-0.066698 0.059902 -0.018922 -0.043507 0.987983 -0.148311 211 207 202
-0.068683 0.058327 -0.016930 -0.140880 -0.034754 0.989416 181 170 155
-0.058471 0.058781 -0.019580 0.103970 -0.860843 -0.498136 170 168 154
-0.069687 0.059806 -0.018350 -0.069453 0.966150 0.248459 230 230 216
-0.060209 0.057785 -0.018326 0.115057 -0.827341 -0.549791 169 165 153
-0.071678 0.059255 -0.017465 -0.143180 0.749528 0.646302 247 237 219
-0.057984 0.059580 -0.020676 0.040305 0.641942 -0.765692 137 137 129
-0.060650 0.057593 -0.018132 0.071396 -0.826762 -0.558004 171 165 152
-0.062145 0.057115 -0.017359 -0.015539 -0.914612 -0.404034 183 175 158
-0.061102 0.057429 -0.017917 0.034887 -0.857332 -0.513580 174 169 155
-0.058011 0.059459 -0.020634 0.080052 -0.745443 -0.661745 88 85 78
-0.058954 0.059603 -0.020670 -0.005495 0.502399 -0.864618 183 179 166
-0.059572 0.058733 -0.019696 0.089316 -0.854206 -0.512207 177 174 164
-0.070711 0.059737 -0.018408 -0.083627 0.965587 0.246267 239 233 215
-0.061079 0.057774 -0.018428 0.060066 -0.828208 -0.557193 179 174 160
-0.060081 0.058530 -0.019430 0.084288 -0.849565 -0.520706 182 178 169
-0.063718 0.056949 -0.017086 -0.192135 -0.551172 0.811970 179 176 159
-0.060916 0.058308 -0.019207 0.074470 -0.838506 -0.539779 186 185 171
-0.072717 0.059131 -0.017579 -0.161075 0.716284 0.678965 230 220 202
-0.062208 0.057541 -0.018176 0.051901 -0.860177 -0.507349 176 170 152
-0.063768 0.056938 -0.017250 0.008048 -0.960028 -0.279787 179 176 159
-0.063022 0.057241 -0.017723 0.067309 -0.903564 -0.423133 176 173 156
-0.064774 0.057094 -0.017209 -0.006372 -0.948960 0.315333 194 191 173
-0.059457 0.059283 -0.020564 0.088707 -0.702483 -0.706150 105 103 98
-0.060000 0.059562 -0.020740 0.099117 0.619941 -0.778364 183 181 169
-0.060074 0.058916 -0.020092 0.075023 -0.846728 -0.526711 184 182 170
-0.071741 0.059660 -0.018488 -0.107505 0.960298 0.257428 234 232 215
-0.060651 0.058836 -0.020031 0.064349 -0.842266 -0.535208 187 187 174
-0.062090 0.058054 -0.018977 0.073612 -0.841410 -0.535361 185 183 168
-0.060348 0.059335 -0.020750 0.105876 -0.703502 -0.702764 166 165 155
-0.063040 0.057725 -0.018588 0.067143 -0.857129 -0.510707 173 172 154
-0.073744 0.059010 -0.017701 -0.157593 0.757085 0.634024 223 213 198
-0.066671 0.057281 -0.017430 -0.230212 -0.958674 0.167174 187 184 169
-0.064149 0.057365 -0.018097 0.023276 -0.893102 -0.449251 177 175 157
-0.060982 0.059600 -0.021048 0.348830 0.362454 -0.864260 174 175 164
-0.072768 0.059578 -0.018568 -0.118621 0.961305 0.248641 232 229 220
-0.061882 0.058721 -0.019995 0.047829 -0.820611 -0.569481 195 195 181
-0.062539 0.059431 -0.020606 -0.037720 0.529851 -0.847252 198 197 186
-0.065908 0.056748 -0.017186 -0.148160 -0.501972 0.852099 187 188 174
-0.061158 0.059381 -0.020890 0.054313 -0.773168 -0.631872 157 157 146
-0.067631 0.057369 -0.017487 -0.110951 -0.953786 0.279254 198 197 179
-0.061335 0.059697 -0.021197 0.093223 0.972410 -0.213843 74 76 71
-0.072779 0.058398 -0.017499 -0.138403 0.061705 0.988452 199 197 183
-0.065900 0.056752 -0.017264 -0.050612 -0.893182 -0.446839 187 188 174
-0.066846 0.059678 -0.020053 -0.057093 0.937693 -0.342743 207 201 197
-0.069809 0.057631 -0.017348 -0.104779 -0.719319 0.686733 209 199 182
-0.061346 0.059671 -0.021202 0.018297 -0.628469 -0.777619 74 76 71
-0.071787 0.058070 -0.017388 -0.040194 -0.465182 0.884302 198 193 176
-0.067835 0.059685 -0.019861 -0.018281 0.975512 -0.219187 205 205 197
-0.064868 0.059640 -0.020437 -0.051796 0.928002 -0.368957 205 202 191
-0.063878 0.059623 -0.020626 0.022169 0.933423 -0.358091 206 203 194
-0.065857 0.059662 -0.020252 -0.047193 0.937201 -0.345582 199 201 201
-0.070793 0.057848 -0.017385 -0.104078 -0.652289 0.750790 204 198 178
-0.068824 0.059684 -0.019669 -0.034031 0.981773 -0.186985 209 206 198
-0.070801 0.059662 -0.019245 -0.055727 0.984117 -0.168548 219 218 202
-0.069812 0.059688 -0.019484 -0.079910 0.969548 -0.231499 213 210 202
-0.062907 0.058358 -0.019587 0.079579 -0.825804 -0.558314 192 191 176
-0.065221 0.057264 -0.018007 0.076204 -0.894553 -0.440417 183 174 158
-0.062093 0.059240 -0.020684 -0.090026 -0.683500 -0.724377 117 118 110
-0.062642 0.059033 -0.020443 0.008414 -0.704896 -0.709261 118 119 112
-0.073796 0.059479 -0.018655 -0.121928 0.947042 0.297061 232 230 221
-0.074796 0.058864 -0.017837 -0.173826 0.411622 0.894624 224 215 200
-0.064003 0.058114 -0.019362 0.060153 -0.850469 -0.522575 172 169 155
-0.066190 0.057653 -0.018586 -0.088733 -0.868157 -0.488293 181 181 165
-0.067897 0.057481 -0.018080 0.031454 -0.947663 -0.317721 202 199 179
-0.065061 0.058015 -0.019252 -0.000105 -0.862214 -0.506543 172 166 152
-0.068711 0.057410 -0.017876 0.045079 -0.998947 -0.008593 197 192 173
-0.064051 0.059334 -0.020916 0.180563 -0.216080 -0.959535 204 200 189
-0.067194 0.057750 -0.018651 0.004481 -0.907673 -0.419654 191 187 168
-0.074831 0.059374 -0.018772 -0.126316 0.973901 0.188578 236 233 223
-0.064067 0.058989 -0.020685 0.123809 -0.707281 -0.696007 180 179 169
-0.075834 0.058717 -0.017969 -0.181304 0.566376 0.803957 219 212 192
-0.064778 0.058493 -0.020073 0.034600 -0.844983 -0.533673 185 179 167
-0.065923 0.058334 -0.019748 -0.024786 -0.858987 -0.511396 182 180 164
-0.064822 0.059328 -0.021013 0.010630 0.304844 -0.952343 200 196 189
-0.065429 0.058525 -0.020118 -0.025606 -0.853466 -0.520519 183 180 167
-0.066822 0.058298 -0.019676 0.006890 -0.863190 -0.504832 189 186 169
-0.065734 0.059291 -0.020936 -0.144928 0.461916 -0.875003 186 190 176
-0.069950 0.057301 -0.018029 0.014919 -0.998432 0.053961 178 177 161
-0.070639 0.057365 -0.017997 -0.056188 -0.973120 0.223338 214 208 190
-0.067109 0.059304 -0.020725 0.025196 0.606384 -0.794773 176 173 161
-0.067711 0.058090 -0.019398 0.092928 -0.881933 -0.462125 177 175 162
-0.075873 0.059257 -0.018897 -0.167556 0.882312 0.439830 239 234 228
-0.065368 0.059047 -0.020932 -0.025732 -0.647175 -0.761907 164 161 155
-0.066293 0.058899 -0.020635 -0.056381 -0.639768 -0.766497 102 102 93
-0.076873 0.058580 -0.018106 -0.173932 0.718863 0.673040 217 209 191
-0.068636 0.057773 -0.019029 0.126299 -0.907020 -0.401700 185 184 164
-0.073915 0.057524 -0.017794 -0.074801 -0.480021 0.874062 205 199 181
-0.067983 0.059432 -0.020985 0.029773 0.859521 -0.510231 187 182 173
-0.068971 0.059436 -0.020793 -0.073360 0.917130 -0.391780 205 202 194
-0.074903 0.057744 -0.017834 -0.112311 -0.225813 0.967675 202 194 176
-0.075891 0.058021 -0.017919 -0.139537 0.026028 0.989874 200 188 169
-0.072920 0.057340 -0.017856 0.005274 -0.741790 0.670612 212 206 187
-0.069959 0.059434 -0.020618 -0.134301 0.873737 -0.467491 208 206 198
-0.072926 0.059420 -0.019983 -0.017448 0.968386 -0.248843 213 208 200
-0.073913 0.059377 -0.019756 -0.075279 0.990017 -0.119162 215 213 202
-0.067390 0.058930 -0.020710 0.119998 -0.632167 -0.765484 159 157 148
-0.072104 0.057290 -0.018089 0.154359 -0.898775 0.410338 215 207 191
-0.069636 0.057499 -0.018829 0.134279 -0.934737 -0.328993 193 188 172
-0.076906 0.059132 -0.019011 -0.140940 0.958719 0.246968 242 238 229
-0.071604 0.059292 -0.020407 0.035426 0.886871 -0.460656 207 207 201
-0.077906 0.058448 -0.018240 -0.184400 0.617448 0.764693 211 204 184
-0.068325 0.059195 -0.021055 0.083672 -0.029347 -0.996061 190 186 172
-0.070407 0.057423 -0.018851 0.049570 -0.954120 -0.295293 182 180 168
-0.070679 0.059148 -0.020717 -0.135862 0.635917 -0.759705 199 194 183
-0.068465 0.058798 -0.020874 0.133821 -0.746579 -0.651700 83 81 74
-0.077939 0.059005 -0.019123 -0.155475 0.903241 0.399979 208 205 197
-0.070066 0.059025 -0.020951 -0.193939 -0.089349 -0.976936 198 195 183
-0.078941 0.058310 -0.018388 -0.206425 0.664446 0.718262 208 197 178
-0.069232 0.058981 -0.021109 -0.053140 -0.300017 -0.952452 195 193 178
-0.070429 0.057917 -0.019816 0.068740 -0.823131 -0.563675 182 180 164
-0.072880 0.056946 -0.018333 -0.015109 -0.920064 0.391475 214 208 187
-0.069611 0.058537 -0.020661 -0.002682 -0.750749 -0.660582 168 166 155
-0.070748 0.057769 -0.019642 0.072286 -0.849815 -0.522101 117 115 106
-0.070626 0.058768 -0.020736 -0.039301 -0.485094 -0.873579 200 196 182
-0.071691 0.057555 -0.019366 0.165038 -0.907397 -0.386515 109 106 96
-0.078972 0.058873 -0.019234 -0.165835 0.917990 0.360267 243 242 231
-0.072833 0.056943 -0.018581 0.227253 -0.959262 -0.167841 214 208 187
-0.071161 0.058182 -0.020213 0.090415 -0.735174 -0.671821 202 196 179
-0.071849 0.058826 -0.020839 0.268096 -0.210311 -0.940156 199 197 184
-0.079984 0.058144 -0.018554 -0.212979 0.372410 0.903300 197 185 166
-0.074063 0.059179 -0.020917 -0.056960 0.903829 -0.424085 210 207 200
-0.076035 0.057023 -0.018316 -0.121942 -0.522319 0.843986 213 203 183
-0.077024 0.057194 -0.018286 -0.129738 -0.665180 0.735326 202 195 177
-0.075045 0.056840 -0.018340 0.067590 -0.894577 0.441772 213 205 186
-0.078015 0.057372 -0.018265 -0.118141 -0.270894 0.955332 194 189 171
-0.075051 0.059158 -0.020707 -0.105145 0.943221 -0.315084 213 208 202
-0.076039 0.059114 -0.020464 -0.020254 0.926305 -0.376230 211 212 200
-0.077028 0.059076 -0.020219 -0.088780 0.989717 -0.112156 219 214 206
-0.078015 0.058982 -0.019928 -0.108765 0.993421 -0.035844 221 218 211
-0.073669 0.056910 -0.018752 0.037610 -0.999185 0.014620 214 208 185
-0.072054 0.058280 -0.020539 0.273713 -0.688606 -0.671494 202 194 178
-0.080012 0.058733 -0.019368 -0.178647 0.918209 0.353522 243 241 228
-0.073209 0.057238 -0.019505 0.181881 -0.876932 -0.444871 105 102 89
-0.072652 0.057945 -0.020405 0.232588 -0.778846 -0.582497 202 195 173
-0.072627 0.058821 -0.021308 0.368132 -0.257887 -0.893293 202 196 181
-0.081045 0.057944 -0.018738 -0.230866 0.263161 0.936721 202 189 173
-0.073151 0.058928 -0.021463 0.222899 0.770884 -0.596701 203 200 188
-0.072810 0.058700 -0.021312 0.364604 -0.558953 -0.744739 204 196 180
-0.081059 0.058582 -0.019531 -0.189040 0.919333 0.345095 243 240 228
-0.074296 0.057039 -0.019551 0.135523 -0.890354 -0.434629 123 119 110
-0.075181 0.056836 -0.019218 0.110887 -0.950849 -0.289122 206 201 182
-0.073255 0.058857 -0.021704 0.434012 0.606305 -0.666354 203 200 188
-0.073942 0.057931 -0.020789 0.126104 -0.785662 -0.605667 194 191 176
-0.074757 0.058748 -0.021463 -0.282838 0.509221 -0.812833 207 203 193
-0.082102 0.057702 -0.018951 -0.257384 0.283522 0.923779 186 173 153
-0.082118 0.058423 -0.019711 -0.207523 0.921335 0.328749 220 217 203
-0.073824 0.058813 -0.021876 0.016235 -0.483540 -0.875172 209 205 198
-0.075057 0.057181 -0.019955 0.071846 -0.843736 -0.531928 158 153 144
-0.073883 0.058869 -0.021953 0.071061 -0.248788 -0.965947 209 205 198
-0.074714 0.058556 -0.021524 -0.250983 -0.319735 -0.913662 207 203 193
-0.077047 0.056385 -0.018857 -0.002126 -0.999988 -0.004436 207 201 183
-0.077232 0.056435 -0.018893 -0.236536 -0.949807 0.204735 208 203 185
-0.081133 0.058624 -0.020309 -0.126460 0.991696 0.023387 229 223 210
-0.079149 0.056714 -0.018790 0.085306 -0.900496 0.426415 214 199 185
-0.077176 0.058849 -0.021383 -0.014567 0.825202 -0.564650 206 202 190
-0.080136 0.056866 -0.018749 -0.030818 -0.621297 0.782970 193 183 169
-0.078164 0.058816 -0.021151 -0.041826 0.873988 -0.484144 212 210 202
-0.080142 0.058726 -0.020648 -0.094889 0.990187 -0.102587 214 216 203
-0.081124 0.057080 -0.018777 -0.178558 -0.096176 0.979217 185 178 165
-0.079150 0.058803 -0.020960 -0.088413 0.976261 -0.197728 214 210 205
-0.075417 0.058193 -0.021216 -0.012578 -0.546317 -0.837484 199 195 185
-0.076334 0.058557 -0.021441 0.119716 0.424091 -0.897672 205 201 189
-0.076554 0.057094 -0.019983 0.067752 -0.827203 -0.557803 98 95 87
-0.078087 0.056688 -0.019296 -0.003089 -0.993845 0.110738 215 207 192
-0.083148 0.058223 -0.019854 -0.276236 0.651973 0.706133 152 166 137
-0.076493 0.058331 -0.021442 0.127434 -0.512145 -0.849393 206 202 189
-0.077192 0.058559 -0.021538 0.079787 0.147217 -0.985881 206 202 190
-0.083152 0.057465 -0.019177 -0.252554 0.193220 0.948094 184 178 161
-0.077610 0.056869 -0.019795 0.103766 -0.887249 -0.449468 187 184 170
-0.077537 0.057866 -0.021268 0.253424 -0.669704 -0.698050 208 202 184
-0.084201 0.058034 -0.020050 -0.212186 0.955948 0.202831 219 228 199
-0.078427 0.056929 -0.020302 0.255980 -0.871591 -0.418096 106 106 93
-0.084224 0.057230 -0.019417 -0.267113 0.377866 0.886492 191 199 175
-0.079355 0.056448 -0.019723 0.238571 -0.967521 -0.083585 216 212 190
-0.080321 0.056260 -0.019453 0.132531 -0.950657 0.280513 175 171 157
-0.083245 0.058400 -0.021057 -0.119017 0.991950 -0.043257 220 218 209
-0.080291 0.058503 -0.021793 -0.034391 0.944695 -0.326143 214 211 203
-0.083255 0.056609 -0.019255 -0.171797 -0.224584 0.959191 130 120 123
-0.079300 0.058512 -0.022034 -0.015922 0.873539 -0.486493 215 212 203
-0.081278 0.058493 -0.021603 -0.053470 0.980275 -0.190269 213 210 205
-0.081271 0.056221 -0.019293 0.033793 -0.848912 0.527452 114 112 98
-0.082259 0.056381 -0.019255 -0.010553 -0.745335 0.666607 184 171 164
-0.082264 0.058468 -0.021402 -0.085214 0.986656 -0.138743 215 214 206
-0.085252 0.057841 -0.020242 -0.245141 0.863930 0.439922 234 235 213
-0.078725 0.058331 -0.022161 0.370175 0.286861 -0.883562 210 206 196
-0.085266 0.056997 -0.019653 -0.281686 0.225532 0.932625 186 175 145
-0.079438 0.056761 -0.020731 0.291220 -0.842074 -0.453985 187 187 169
-0.084300 0.058247 -0.021237 -0.153988 0.987903 -0.018300 225 218 210
-0.078953 0.057925 -0.022053 0.329463 -0.691433 -0.642942 202 200 182
-0.081354 0.056099 -0.019766 0.090153 -0.994464 0.053985 227 228 201
-0.079023 0.058233 -0.022432 0.392398 -0.374334 -0.840177 212 209 196
-0.080339 0.056276 -0.020245 0.192265 -0.946834 -0.257955 211 211 189
-0.086295 0.057632 -0.020424 -0.250961 0.905487 0.342218 248 244 238
-0.080128 0.058080 -0.022407 0.259470 -0.027252 -0.965366 207 207 193
-0.085339 0.058064 -0.021396 -0.212448 0.965288 0.151934 224 218 213
-0.080250 0.057054 -0.021536 0.228415 -0.771397 -0.593948 189 186 168
