ply
format ascii 1.0
comment Exported by Geomagic
element vertex 676
property float x
property float y
property float z
property float nx
property float ny
property float nz
property uchar red
property uchar green
property uchar blue
end_header
-0.056340 -0.063997 -0.000165 -0.041605 -0.937775 0.344742 225 221 219
-0.049417 -0.064441 -0.001171 0.019009 -0.983342 0.180765 199 198 188
-0.046438 -0.064465 -0.001785 0.008253 -0.997723 0.066941 209 208 198
-0.066266 -0.061128 -0.001088 -0.072972 0.694580 0.715705 227 222 200
-0.047450 -0.064493 -0.001638 0.030305 -0.992296 0.120127 208 205 198
-0.051860 -0.062253 -0.003034 0.106897 0.454934 -0.884086 183 184 177
-0.050103 -0.062628 -0.003107 -0.039484 0.446416 -0.893954 180 180 174
-0.063306 -0.060813 -0.002234 0.086606 0.991499 -0.097105 182 181 169
-0.043663 -0.064263 -0.002838 0.274209 -0.621390 -0.733950 193 191 181
-0.064301 -0.060718 -0.002135 0.067900 0.995180 -0.070749 186 183 166
-0.044133 -0.063944 -0.003120 0.164156 -0.235204 -0.957983 180 181 171
-0.047401 -0.063033 -0.003384 0.048999 0.099193 -0.993861 188 189 181
-0.044992 -0.063707 -0.003217 0.069394 -0.248575 -0.966123 184 183 175
-0.065292 -0.062062 -0.000660 -0.160642 0.210199 0.964371 192 179 168
-0.065301 -0.060673 -0.002081 -0.005654 0.973166 0.230033 160 157 145
-0.053455 -0.062050 -0.003164 0.262752 0.538566 -0.800567 178 179 172
-0.044438 -0.064300 -0.002838 -0.021782 -0.823496 -0.566903 196 195 186
-0.067290 -0.061214 -0.001219 -0.145176 0.502641 0.852218 217 212 195
-0.066306 -0.060655 -0.002087 0.018867 0.975036 0.221243 167 165 152
-0.046300 -0.063713 -0.003252 0.045426 -0.259527 -0.964667 194 193 184
-0.045612 -0.064238 -0.002939 0.016377 -0.756374 -0.653934 198 195 190
-0.067311 -0.060625 -0.002120 0.055405 0.997449 0.045013 180 176 164
-0.046469 -0.064376 -0.002752 0.058575 -0.907765 -0.415369 202 200 193
-0.068313 -0.061310 -0.001330 -0.138463 0.507509 0.850448 208 201 188
-0.048297 -0.063386 -0.003462 0.035005 0.116867 -0.992531 182 183 177
-0.068332 -0.060656 -0.002079 -0.085785 0.768177 0.634465 207 206 182
-0.054698 -0.061969 -0.003749 0.236576 0.584454 -0.776173 178 177 171
-0.059489 -0.061358 -0.003392 0.082531 0.849923 -0.520402 177 176 167
-0.056623 -0.061650 -0.003702 0.041847 0.799415 -0.599319 176 177 166
-0.069339 -0.060649 -0.002088 -0.002106 0.788890 0.614531 219 212 194
-0.066406 -0.062694 -0.000714 -0.191588 -0.320553 0.927653 201 197 185
-0.055731 -0.061841 -0.003831 0.087277 0.717198 -0.691383 177 176 171
-0.047525 -0.064081 -0.003269 0.220016 -0.412672 -0.883909 145 144 139
-0.050550 -0.064531 -0.002193 -0.079230 -0.996797 -0.010846 209 207 199
-0.057478 -0.064200 -0.001085 0.006316 -0.984237 0.176744 201 200 192
-0.069358 -0.061429 -0.001426 -0.098813 0.340957 0.934872 211 202 187
-0.048571 -0.064712 -0.002436 0.060970 -0.997311 0.040654 210 204 191
-0.049561 -0.064626 -0.002324 -0.103251 -0.994625 -0.007733 204 205 195
-0.048130 -0.064617 -0.002635 0.204625 -0.976190 -0.071987 203 206 195
-0.059458 -0.064093 -0.000806 -0.037195 -0.982492 0.182557 221 207 206
-0.067368 -0.062368 -0.000910 -0.196355 0.105398 0.974851 206 202 186
-0.056489 -0.064210 -0.001311 0.042354 -0.983090 0.178158 209 199 193
-0.061442 -0.061112 -0.003435 0.075187 0.952356 -0.295575 173 175 166
-0.052531 -0.064375 -0.001978 -0.045154 -0.998953 -0.007375 206 202 195
-0.053521 -0.064295 -0.001852 -0.044297 -0.998203 0.040356 201 200 196
-0.062420 -0.063550 -0.000752 -0.145321 -0.692284 0.706841 243 237 241
-0.061437 -0.063757 -0.000747 -0.154485 -0.693928 0.703277 241 234 239
-0.063414 -0.063355 -0.000745 -0.115413 -0.705212 0.699539 242 236 239
-0.065396 -0.062958 -0.000735 -0.153430 -0.613682 0.774502 240 234 219
-0.063421 -0.060918 -0.003232 0.170575 0.959564 -0.223921 179 176 168
-0.064400 -0.063190 -0.000713 -0.118204 -0.687861 0.716153 241 235 229
-0.054510 -0.064246 -0.001707 0.021895 -0.984944 0.171481 201 202 196
-0.068361 -0.061949 -0.001159 -0.238881 0.020304 0.970837 180 175 164
-0.051545 -0.064474 -0.002108 -0.055249 -0.997455 -0.045054 203 207 199
-0.065402 -0.060727 -0.003046 0.051069 0.989517 -0.135084 175 178 166
-0.057442 -0.061672 -0.003749 0.024072 0.747481 -0.663848 178 176 169
-0.066392 -0.060689 -0.002879 0.020148 0.997666 -0.065234 181 178 162
-0.064415 -0.060810 -0.003177 0.075274 0.981050 -0.178532 179 177 163
-0.062436 -0.061036 -0.003367 0.089987 0.944058 -0.317266 173 174 170
-0.055498 -0.064206 -0.001595 -0.053765 -0.980848 0.187208 204 201 195
-0.070352 -0.060672 -0.002095 -0.031601 0.770010 0.637250 218 217 199
-0.060440 -0.064013 -0.000769 -0.087624 -0.868754 0.487430 226 220 218
-0.058336 -0.061674 -0.003796 0.018848 0.731210 -0.681892 177 176 168
-0.049335 -0.063824 -0.003510 -0.106110 0.069489 -0.991923 182 182 175
-0.071373 -0.060713 -0.002116 -0.091105 0.636480 0.765894 224 221 202
-0.060749 -0.061329 -0.003721 0.137794 0.861457 -0.488779 175 175 167
-0.070381 -0.061531 -0.001520 -0.121282 0.195239 0.973228 221 215 195
-0.051160 -0.063699 -0.003373 -0.079317 -0.028594 -0.996440 191 189 183
-0.058523 -0.064219 -0.001427 -0.037656 -0.989840 0.137110 206 201 194
-0.052302 -0.063679 -0.003347 0.031840 -0.139023 -0.989777 192 190 184
-0.072396 -0.060753 -0.002185 -0.063050 0.729621 0.680939 227 221 199
-0.051525 -0.064259 -0.003064 -0.104844 -0.816593 -0.567612 197 194 186
-0.050303 -0.064097 -0.003489 -0.117428 -0.120261 -0.985773 188 188 180
-0.054419 -0.062773 -0.004003 0.383766 0.142893 -0.912307 180 181 174
-0.071415 -0.061630 -0.001640 -0.124511 0.270571 0.954615 223 216 197
-0.052514 -0.064259 -0.002925 -0.007492 -0.905836 -0.423563 200 198 189
-0.050556 -0.064362 -0.003244 -0.213600 -0.826852 -0.520280 194 192 186
-0.049216 -0.064574 -0.003337 -0.234959 -0.794803 -0.559538 185 190 178
-0.056454 -0.062326 -0.004168 0.016842 0.338108 -0.940957 180 178 171
-0.071433 -0.060282 -0.003124 0.059919 0.995543 0.072822 179 178 165
-0.073407 -0.060776 -0.002233 -0.058637 0.790823 0.609230 226 215 201
-0.053736 -0.064402 -0.002662 0.129667 -0.981202 -0.142929 204 204 193
-0.055221 -0.062652 -0.004198 0.156636 0.199813 -0.967233 180 179 175
-0.048717 -0.064654 -0.003587 0.153305 -0.178709 -0.971885 187 186 178
-0.072428 -0.060235 -0.003149 0.022617 0.980643 0.194490 193 191 178
-0.057743 -0.062318 -0.004179 0.037772 0.317853 -0.947387 182 181 175
-0.048752 -0.064765 -0.003595 0.118093 -0.656461 -0.745059 190 186 172
-0.053674 -0.063825 -0.003524 0.294696 -0.426805 -0.854981 191 190 184
-0.061594 -0.061573 -0.004167 0.173959 0.696710 -0.695940 174 174 168
-0.060578 -0.061803 -0.004169 0.174948 0.534018 -0.827175 176 177 173
-0.073447 -0.060268 -0.003094 0.005283 0.969076 0.246703 202 201 188
-0.062570 -0.064189 -0.001430 -0.099355 -0.929429 0.355373 207 207 197
-0.072451 -0.061792 -0.001808 -0.212602 -0.049461 0.975886 237 226 211
-0.061581 -0.064213 -0.001629 -0.045250 -0.995965 0.077502 202 200 190
-0.054650 -0.064653 -0.002644 0.049891 -0.995573 0.079670 208 206 195
-0.073453 -0.061421 -0.002036 -0.250279 -0.016323 0.968037 230 225 206
-0.066526 -0.063477 -0.001391 -0.142853 -0.752545 0.642860 243 237 242
-0.065543 -0.060961 -0.004161 0.128590 0.933283 -0.335333 173 173 165
-0.055643 -0.064541 -0.002589 -0.061300 -0.997225 -0.042238 209 208 198
-0.063565 -0.061151 -0.004386 0.217968 0.946042 -0.239780 175 176 169
-0.068492 -0.063047 -0.001425 -0.209473 -0.400147 0.892190 247 239 236
-0.069491 -0.062821 -0.001446 -0.148756 -0.507096 0.848956 244 237 223
-0.063561 -0.064026 -0.001461 -0.148032 -0.861261 0.486123 213 213 203
-0.074459 -0.060938 -0.002327 -0.161095 0.283320 0.945398 218 208 190
-0.074449 -0.060250 -0.003036 0.021269 0.906813 0.420997 211 208 189
-0.067525 -0.060765 -0.003963 0.025853 0.983118 -0.181133 178 173 165
-0.058613 -0.064320 -0.002209 -0.038624 -0.992382 0.116985 200 202 194
-0.067517 -0.063268 -0.001420 -0.158047 -0.669748 0.725574 247 239 241
-0.066535 -0.060866 -0.004078 0.077218 0.978093 -0.193315 172 175 164
-0.056638 -0.064436 -0.002514 -0.000305 -0.992550 0.121840 215 209 202
-0.068515 -0.060660 -0.003880 0.142475 0.956133 -0.255952 174 175 167
-0.060594 -0.064237 -0.001894 -0.012577 -0.989598 0.143308 204 199 185
-0.064558 -0.061071 -0.004298 0.000869 0.948511 -0.316740 173 173 167
-0.059604 -0.064264 -0.002087 -0.025816 -0.991794 0.125208 197 201 194
-0.064553 -0.063867 -0.001457 -0.129597 -0.888536 0.440124 218 220 215
-0.070493 -0.062598 -0.001509 -0.150807 -0.389964 0.908397 241 235 222
-0.057626 -0.064380 -0.002395 -0.039167 -0.991951 0.120408 205 206 195
-0.059095 -0.062323 -0.004203 0.070184 0.366899 -0.927610 181 182 174
-0.075443 -0.060145 -0.003015 0.016270 0.720882 0.692867 214 212 194
-0.069513 -0.060536 -0.003863 0.113699 0.978130 -0.174169 175 176 166
-0.070504 -0.060418 -0.003799 0.086283 0.983186 -0.160935 178 176 164
-0.065522 -0.063740 -0.001470 -0.070834 -0.932635 0.353798 233 229 227
-0.076462 -0.060195 -0.003008 -0.038147 0.701747 0.711404 222 218 200
-0.054740 -0.064404 -0.003345 0.137757 -0.858062 -0.494725 206 204 198
-0.075486 -0.061065 -0.002466 -0.076877 0.403159 0.911896 219 211 194
-0.054996 -0.063745 -0.004046 0.220707 -0.377184 -0.899455 188 185 177
-0.063017 -0.061525 -0.004669 0.487030 0.608594 -0.626431 170 169 162
-0.077482 -0.060243 -0.003030 -0.099573 0.618407 0.779525 221 213 192
-0.055821 -0.063551 -0.004223 0.059221 -0.202316 -0.977528 185 183 176
-0.076518 -0.061178 -0.002566 -0.122568 0.218674 0.968070 224 217 194
-0.055797 -0.064197 -0.003860 0.068909 -0.747121 -0.661107 201 200 192
-0.076528 -0.059829 -0.004044 0.109773 0.989618 -0.092768 172 171 157
-0.077503 -0.059678 -0.004009 0.169058 0.983500 -0.064393 189 190 173
-0.078513 -0.060319 -0.003145 -0.148857 0.600806 0.785413 225 220 203
-0.056889 -0.063770 -0.004191 0.066968 -0.276970 -0.958542 193 193 184
-0.056805 -0.064373 -0.003665 0.088129 -0.915992 -0.391398 206 206 199
-0.061491 -0.062531 -0.004661 0.246714 0.202803 -0.947630 183 183 176
-0.078527 -0.059744 -0.003953 -0.046324 0.848554 0.527076 206 205 186
-0.066695 -0.063993 -0.002154 -0.026580 -0.966127 0.256695 210 209 200
-0.062324 -0.062241 -0.004864 0.320793 0.305186 -0.896635 181 182 174
-0.058320 -0.063567 -0.004365 0.068401 -0.117103 -0.990761 190 193 184
-0.064671 -0.061498 -0.005181 -0.033700 0.641470 -0.766407 187 185 173
-0.077559 -0.061316 -0.002678 -0.180375 -0.007712 0.983568 215 210 192
-0.060425 -0.063036 -0.004514 0.128461 0.085919 -0.987986 186 186 178
-0.067665 -0.063860 -0.002173 -0.133505 -0.924589 0.356807 217 212 206
-0.079540 -0.059705 -0.003924 0.054969 0.855411 0.515026 215 207 190
-0.073598 -0.062622 -0.002218 -0.209778 -0.390742 0.896278 245 238 230
-0.057768 -0.064514 -0.003606 0.006115 -0.991543 -0.129632 167 166 162
-0.058758 -0.064444 -0.003475 -0.058167 -0.997077 -0.049526 209 203 197
-0.066679 -0.061072 -0.005254 0.113321 0.876690 -0.467518 185 183 172
-0.074589 -0.062359 -0.002288 -0.186508 -0.412935 0.891459 243 236 225
-0.072608 -0.062861 -0.002209 -0.159478 -0.677710 0.717827 245 239 233
-0.072617 -0.060393 -0.004722 0.126070 0.942038 -0.310918 175 176 166
-0.068644 -0.063716 -0.002167 -0.138873 -0.877992 0.458089 220 219 212
-0.070633 -0.063274 -0.002202 -0.140693 -0.693958 0.706135 244 238 243
-0.071620 -0.063073 -0.002199 -0.145999 -0.687997 0.710875 246 240 244
-0.073611 -0.060211 -0.004704 0.098830 0.975130 -0.198376 182 177 169
-0.065555 -0.061392 -0.005187 0.098915 0.706222 -0.701046 184 184 174
-0.065683 -0.063910 -0.002596 0.016506 -0.995900 0.088946 206 204 194
-0.064697 -0.064024 -0.002690 -0.098446 -0.992782 0.068495 206 200 194
-0.063713 -0.061428 -0.005542 0.329708 0.746780 -0.577592 182 182 162
-0.071630 -0.060526 -0.004808 0.092187 0.938416 -0.332981 177 175 167
-0.059746 -0.064414 -0.003339 -0.100930 -0.994880 -0.005051 205 206 200
-0.069655 -0.063487 -0.002213 -0.119719 -0.883822 0.452244 232 229 220
-0.063708 -0.064068 -0.002867 -0.052837 -0.998396 -0.020347 205 202 189
-0.069653 -0.060763 -0.004994 0.145627 0.933255 -0.328371 176 175 166
-0.074600 -0.060061 -0.004677 0.122810 0.977204 -0.173175 157 158 150
-0.070644 -0.060648 -0.004915 0.080015 0.936798 -0.340598 175 176 168
-0.062720 -0.064134 -0.003024 -0.062112 -0.998059 -0.004411 207 202 196
-0.079552 -0.060428 -0.003282 -0.070898 0.659602 0.748264 224 216 199
-0.075599 -0.059952 -0.004598 0.084641 0.929019 -0.360221 179 179 169
-0.067375 -0.061211 -0.005035 0.000679 0.614309 -0.789065 183 182 173
-0.075582 -0.062122 -0.002390 -0.172931 -0.362888 0.915645 239 232 221
-0.060742 -0.064370 -0.003206 -0.049144 -0.998217 0.033879 207 205 201
-0.061733 -0.064265 -0.003109 -0.119991 -0.992217 -0.033270 208 210 200
-0.063724 -0.061568 -0.005455 0.360114 -0.067668 -0.930451 187 189 175
-0.066278 -0.061313 -0.005219 0.090364 0.506074 -0.857743 193 193 180
-0.080561 -0.059718 -0.003860 -0.063989 0.636107 0.768942 220 217 199
-0.057710 -0.064230 -0.004080 0.095719 -0.624538 -0.775107 208 206 194
-0.059370 -0.063607 -0.004439 0.102547 -0.107541 -0.988898 189 190 180
-0.081564 -0.059725 -0.003925 -0.056149 0.593365 0.802973 220 216 200
-0.059029 -0.064251 -0.004134 0.099967 -0.717469 -0.689379 199 199 193
-0.080583 -0.060591 -0.003390 -0.155615 0.441313 0.883757 222 210 192
-0.063178 -0.062398 -0.005225 0.348772 0.113248 -0.930340 190 190 180
-0.079619 -0.059343 -0.004900 0.147671 0.983673 0.102863 184 183 168
-0.080601 -0.059247 -0.004879 0.090957 0.940786 0.326571 188 188 173
-0.069022 -0.061148 -0.005368 0.254718 0.708245 -0.658414 176 174 165
-0.082575 -0.059732 -0.003990 -0.064879 0.644293 0.762021 218 215 198
-0.065626 -0.061879 -0.005403 0.038140 0.210800 -0.976785 193 193 183
-0.081589 -0.059189 -0.004829 0.026720 0.900114 0.434834 198 194 179
-0.060951 -0.064266 -0.003983 -0.079169 -0.955013 -0.285799 195 195 190
-0.061290 -0.063722 -0.004581 0.109695 -0.393754 -0.912648 188 187 180
-0.060111 -0.064241 -0.004363 -0.090614 -0.615883 -0.782609 195 195 189
-0.082603 -0.059202 -0.004804 -0.017691 0.861682 0.507139 205 202 184
-0.081618 -0.060709 -0.003502 -0.115924 0.385891 0.915233 212 205 185
-0.066748 -0.061925 -0.005406 -0.008600 0.187984 -0.982134 194 194 184
-0.059879 -0.064449 -0.004284 -0.144474 -0.923292 -0.355890 136 136 130
-0.070484 -0.061018 -0.005645 0.089769 0.740345 -0.666206 181 178 171
-0.064341 -0.062544 -0.005442 0.028723 0.009282 -0.999544 194 195 186
-0.083620 -0.059206 -0.004818 0.007608 0.866867 0.498482 205 206 188
-0.083617 -0.059904 -0.004116 -0.191489 0.258093 0.946953 216 213 195
-0.062472 -0.063384 -0.004994 0.309985 -0.201853 -0.929067 191 191 182
-0.062186 -0.064080 -0.004355 0.089242 -0.911312 -0.401930 200 198 193
-0.076697 -0.060159 -0.005389 0.154794 0.886965 -0.435123 182 176 166
-0.074802 -0.060472 -0.005487 0.111224 0.782096 -0.613152 178 178 168
-0.067915 -0.061925 -0.005475 0.163003 0.224330 -0.960784 191 190 180
-0.080682 -0.059204 -0.005635 0.198365 0.856949 -0.475700 156 155 150
-0.084633 -0.059202 -0.004819 0.000342 0.843220 0.537568 212 211 191
-0.071769 -0.063708 -0.002921 -0.067956 -0.984507 0.161640 199 195 187
-0.078701 -0.062106 -0.003105 -0.220932 -0.540706 0.811681 248 241 237
-0.062863 -0.064150 -0.004364 0.009592 -0.998422 -0.055323 209 202 195
-0.068810 -0.063840 -0.003437 -0.079082 -0.982002 0.171514 208 205 195
-0.081665 -0.059021 -0.005658 0.245791 0.857806 -0.451392 185 180 170
-0.070778 -0.063717 -0.003158 0.043885 -0.980956 0.189209 209 210 200
-0.079684 -0.061827 -0.003224 -0.265319 -0.605607 0.750230 243 237 223
-0.065832 -0.063956 -0.003954 -0.067912 -0.994231 -0.083020 208 209 198
-0.076707 -0.062595 -0.003065 -0.161580 -0.670660 0.723953 251 242 242
-0.072748 -0.063564 -0.002908 -0.174054 -0.777925 0.603771 206 204 197
-0.075722 -0.062811 -0.003054 -0.155586 -0.675540 0.720721 246 240 238
-0.077698 -0.062372 -0.003088 -0.174761 -0.658475 0.732031 246 241 241
-0.063854 -0.064057 -0.004273 -0.092762 -0.995495 -0.019586 207 208 193
-0.067811 -0.063836 -0.003672 0.143909 -0.977842 0.152035 209 204 198
-0.078704 -0.059703 -0.005606 0.258234 0.905863 -0.335748 181 178 170
-0.082654 -0.060753 -0.003712 -0.234293 0.018620 0.971988 209 201 186
-0.064844 -0.064003 -0.004141 -0.081032 -0.993311 -0.082266 209 210 200
-0.066837 -0.063844 -0.003898 0.006726 -0.997425 -0.071405 208 209 200
-0.073741 -0.063345 -0.002976 -0.253244 -0.827822 0.500578 215 214 207
-0.069747 -0.061315 -0.005881 0.221523 0.446825 -0.866761 185 186 175
-0.079705 -0.059456 -0.005693 0.208593 0.857310 -0.470646 160 159 154
-0.074766 -0.063046 -0.003070 -0.170797 -0.833457 0.525525 240 233 227
-0.080670 -0.061567 -0.003349 -0.230261 -0.546895 0.804914 238 232 212
-0.073623 -0.060724 -0.005695 0.037527 0.796216 -0.603848 179 176 167
-0.072737 -0.060836 -0.005802 0.072418 0.799630 -0.596109 178 177 167
-0.085650 -0.059220 -0.004796 -0.059419 0.745694 0.663634 216 214 197
-0.083679 -0.058735 -0.005714 0.057821 0.973737 0.220214 139 135 130
-0.071968 -0.061011 -0.005916 0.120823 0.680005 -0.723184 180 177 165
-0.069809 -0.063756 -0.003618 -0.041408 -0.980434 0.192445 206 204 200
-0.082689 -0.058880 -0.005910 0.148670 0.961450 -0.231325 183 180 169
-0.084665 -0.058669 -0.005741 0.148218 0.961133 0.232927 191 190 179
-0.069114 -0.061840 -0.005765 0.262277 0.139263 -0.954891 188 187 177
-0.077959 -0.060009 -0.005783 0.253453 0.861647 -0.439689 180 177 170
-0.075824 -0.060481 -0.005751 0.128096 0.772206 -0.622326 177 175 169
-0.084673 -0.060103 -0.004297 -0.210602 0.218517 0.952836 213 212 194
-0.066223 -0.062830 -0.005413 -0.018403 -0.229074 -0.973234 199 199 188
-0.085670 -0.058665 -0.005673 0.021120 0.863032 0.504709 198 198 182
-0.063059 -0.064041 -0.004953 0.267390 -0.701926 -0.660153 199 199 194
-0.086056 -0.057418 -0.006980 0.844847 0.076838 -0.529461 183 179 166
-0.086066 -0.057416 -0.006982 0.040584 0.272703 -0.961242 183 179 166
-0.065275 -0.063295 -0.005349 -0.158135 -0.362221 -0.918580 200 200 190
-0.086675 -0.059324 -0.004927 -0.210849 0.290770 0.933272 216 212 195
-0.063655 -0.063702 -0.005303 0.160893 -0.273496 -0.948322 197 198 190
-0.066023 -0.063672 -0.004857 -0.065203 -0.844940 -0.530873 208 208 201
-0.086685 -0.058656 -0.005675 -0.001852 0.846844 0.531838 210 200 191
-0.070134 -0.061766 -0.006010 0.136728 0.093844 -0.986153 185 185 173
-0.063857 -0.064054 -0.005065 -0.037357 -0.910469 -0.411887 206 207 200
-0.064739 -0.063916 -0.005035 -0.210207 -0.907221 -0.364365 201 201 196
-0.071850 -0.063746 -0.003722 -0.108209 -0.992679 0.053652 138 138 133
-0.064495 -0.063763 -0.005323 -0.087292 -0.439968 -0.893761 199 200 189
-0.087694 -0.058665 -0.005677 0.003760 0.814493 0.580162 204 204 186
-0.067235 -0.063179 -0.005382 0.152270 -0.311286 -0.938038 200 200 190
-0.086444 -0.057706 -0.006967 0.031987 0.899753 0.435227 171 168 162
-0.073445 -0.061203 -0.006167 0.004539 0.515032 -0.857159 182 183 172
-0.085734 -0.060338 -0.004482 -0.245197 0.070085 0.966936 213 203 188
-0.086727 -0.058122 -0.006547 0.107547 0.788384 0.605710 183 185 174
-0.087729 -0.058044 -0.006468 0.068018 0.810873 0.581255 189 191 173
-0.067387 -0.063879 -0.004789 0.283913 -0.913764 -0.290566 211 214 205
-0.072706 -0.061416 -0.006238 0.076037 0.365319 -0.927772 186 188 175
-0.088738 -0.058728 -0.005683 -0.191209 0.525660 0.828927 210 202 191
-0.086003 -0.058031 -0.006967 0.566131 0.639569 -0.520046 161 162 152
-0.078773 -0.060163 -0.006307 0.219035 0.685635 -0.694211 179 178 171
-0.087704 -0.059483 -0.005143 -0.279467 0.188548 0.941460 209 204 189
-0.077566 -0.060551 -0.006277 0.253960 0.620518 -0.741931 181 180 170
-0.088741 -0.058070 -0.006503 -0.041699 0.760017 0.648564 198 192 180
-0.071415 -0.061934 -0.006198 0.177114 0.160257 -0.971055 182 183 170
-0.076322 -0.060923 -0.006218 0.139409 0.557644 -0.818289 189 191 180
-0.075871 -0.063366 -0.003846 -0.096137 -0.983571 0.152795 213 210 201
-0.082800 -0.061737 -0.004057 -0.243917 -0.648818 0.720792 249 242 237
-0.088743 -0.057377 -0.007261 0.194051 0.860264 0.471477 187 185 172
-0.070920 -0.063877 -0.004370 -0.050624 -0.995555 -0.079421 204 204 195
-0.067944 -0.064169 -0.004696 0.100780 -0.983234 -0.151967 214 211 202
-0.088760 -0.057388 -0.007255 0.098382 0.792967 0.601269 187 185 172
-0.068941 -0.064031 -0.004639 -0.108224 -0.992219 -0.061560 216 212 208
-0.069934 -0.063944 -0.004526 -0.056118 -0.998408 0.005526 207 217 208
-0.072900 -0.063650 -0.004206 -0.125793 -0.988857 0.079613 206 202 197
-0.073879 -0.063506 -0.004148 -0.142846 -0.980536 0.134703 206 205 201
-0.068443 -0.063229 -0.005571 0.122145 -0.258759 -0.958188 195 193 184
-0.074879 -0.063451 -0.004006 -0.034742 -0.975590 0.216833 210 207 200
-0.077847 -0.063069 -0.003774 -0.189521 -0.871840 0.451637 226 220 211
-0.080820 -0.062250 -0.003999 -0.197176 -0.659921 0.725000 246 243 244
-0.081800 -0.062012 -0.004036 -0.192160 -0.662983 0.723552 250 243 248
-0.083798 -0.061451 -0.004196 -0.279527 -0.588201 0.758871 248 242 235
-0.084778 -0.058800 -0.006698 0.248029 0.904075 -0.348038 180 181 168
-0.083805 -0.058952 -0.006748 0.225309 0.741958 -0.631455 186 183 175
-0.076865 -0.063235 -0.003841 -0.149058 -0.988438 0.027795 199 201 189
-0.086750 -0.060304 -0.004775 -0.284528 -0.173799 0.942782 212 208 190
-0.084774 -0.061101 -0.004379 -0.278900 -0.254291 0.926041 246 238 225
-0.075603 -0.061147 -0.006252 0.138648 0.501998 -0.853683 190 192 182
-0.078830 -0.062857 -0.003844 -0.272517 -0.846072 0.458144 232 226 220
-0.088968 -0.057193 -0.007518 0.340125 0.937422 -0.074528 158 154 144
-0.089710 -0.057219 -0.007343 -0.051844 0.784939 0.617401 187 186 171
-0.079874 -0.062541 -0.003987 -0.172602 -0.808557 0.562534 242 239 242
-0.080763 -0.059892 -0.006524 0.170690 0.689145 -0.704233 177 179 172
-0.088202 -0.057564 -0.007352 0.355520 0.845935 -0.397493 182 177 168
-0.081772 -0.059654 -0.006584 0.242352 0.683833 -0.688213 187 185 173
-0.067957 -0.063828 -0.005231 0.194023 -0.672629 -0.714090 212 211 199
-0.089758 -0.058109 -0.006524 -0.087927 0.689518 0.718911 205 200 186
-0.089577 -0.057047 -0.007737 0.346856 0.826406 -0.443559 166 166 158
-0.074456 -0.061544 -0.006319 0.053095 0.432491 -0.900073 193 194 183
-0.069552 -0.063187 -0.005679 0.105101 -0.414226 -0.904086 194 193 182
-0.079912 -0.060164 -0.006625 0.161278 0.659678 -0.734040 181 178 170
-0.089765 -0.058872 -0.005883 -0.198663 0.438676 0.876411 204 200 180
-0.086655 -0.058085 -0.007338 0.202829 0.491330 -0.847027 180 177 166
-0.068816 -0.063825 -0.005250 -0.035203 -0.767340 -0.640274 207 207 197
-0.069955 -0.063763 -0.005182 0.011313 -0.870270 -0.492446 211 211 201
-0.082915 -0.059478 -0.006904 0.281091 0.657464 -0.699092 185 185 175
-0.090772 -0.058179 -0.006590 -0.147745 0.699232 0.699461 206 202 184
-0.090558 -0.056841 -0.008112 0.350513 0.865669 -0.357434 193 190 182
-0.090808 -0.057530 -0.007367 -0.198297 0.742297 0.640058 200 194 181
-0.088800 -0.059852 -0.005460 -0.315165 0.167301 0.934174 218 214 197
-0.070607 -0.063176 -0.005890 0.247657 -0.389975 -0.886896 193 194 181
-0.090801 -0.056866 -0.008100 -0.179537 0.773792 0.607465 194 190 177
-0.077921 -0.063084 -0.004496 -0.163527 -0.986358 0.018905 210 211 200
-0.071993 -0.063797 -0.005029 -0.091560 -0.994026 0.059391 219 219 208
-0.075955 -0.063361 -0.004703 -0.122212 -0.992497 0.003532 209 208 202
-0.089042 -0.057551 -0.007896 0.381067 0.482772 -0.788492 162 162 152
-0.090808 -0.059039 -0.006089 -0.255406 0.198038 0.946335 207 201 179
-0.091803 -0.058286 -0.006731 -0.184402 0.640083 0.745849 205 202 187
-0.073772 -0.062298 -0.006491 0.073973 0.077740 -0.994226 197 199 185
-0.090258 -0.057203 -0.008256 0.411694 0.483446 -0.772521 194 194 183
-0.091414 -0.056669 -0.008563 0.221374 0.872746 -0.435097 141 140 134
-0.091823 -0.057655 -0.007485 -0.153020 0.764832 0.625793 204 198 182
-0.071159 -0.063643 -0.005753 0.227864 -0.811577 -0.537979 207 204 196
-0.081572 -0.060270 -0.007013 0.208995 0.508385 -0.835383 193 192 182
-0.085076 -0.059241 -0.007349 0.262109 0.536117 -0.802419 175 176 169
-0.091243 -0.056794 -0.008582 0.404665 0.501680 -0.764566 141 140 134
-0.091839 -0.057021 -0.008270 -0.184640 0.752828 0.631788 190 191 179
-0.071459 -0.063351 -0.006142 0.282861 -0.337168 -0.897946 192 194 181
-0.076096 -0.061928 -0.006623 0.089087 0.254275 -0.963020 189 191 180
-0.080536 -0.060631 -0.007043 0.112942 0.492235 -0.863104 187 189 179
-0.079484 -0.060868 -0.007029 0.177931 0.473511 -0.862628 186 184 175
-0.085915 -0.061497 -0.005081 -0.286529 -0.734136 0.615585 246 241 238
-0.079965 -0.062964 -0.004843 0.050524 -0.979849 0.193246 215 211 204
-0.088879 -0.060512 -0.005487 -0.340837 -0.450992 0.824886 236 229 221
-0.080961 -0.062937 -0.004675 -0.135748 -0.902356 0.409054 212 211 199
-0.077004 -0.063228 -0.005213 -0.137285 -0.990501 0.007839 192 190 185
-0.089872 -0.060045 -0.005776 -0.309809 -0.009790 0.950749 230 222 212
-0.086907 -0.061220 -0.005207 -0.288109 -0.633224 0.718347 247 242 240
-0.078969 -0.062906 -0.005153 -0.118787 -0.989328 0.084376 207 209 204
-0.078250 -0.061292 -0.006951 0.249604 0.419930 -0.872558 185 184 175
-0.075028 -0.063472 -0.005404 -0.083407 -0.996511 -0.002987 216 218 208
-0.073048 -0.063759 -0.005532 -0.129692 -0.987970 -0.084226 213 214 198
-0.081952 -0.062715 -0.004734 -0.235721 -0.877770 0.417080 215 212 203
-0.083948 -0.062133 -0.004914 -0.292167 -0.822187 0.488516 227 225 217
-0.091410 -0.059295 -0.006253 -0.354968 -0.128632 0.925987 214 207 193
-0.082945 -0.062461 -0.004807 -0.288664 -0.907216 0.305994 223 218 214
-0.093843 -0.056016 -0.009110 0.102506 0.672105 0.733326 189 183 172
-0.086223 -0.059022 -0.007643 0.292718 0.435330 -0.851354 200 198 191
-0.074045 -0.063601 -0.005528 -0.147412 -0.987990 -0.046317 219 217 206
-0.087899 -0.060951 -0.005340 -0.274953 -0.651229 0.707321 246 241 238
-0.092843 -0.057753 -0.007573 -0.112572 0.783700 0.610853 204 199 187
-0.082677 -0.060136 -0.007285 0.279055 0.459632 -0.843129 193 191 179
-0.072089 -0.063826 -0.005782 0.016527 -0.991322 -0.130412 211 211 199
-0.076969 -0.061917 -0.006759 0.247756 0.218497 -0.943863 189 188 178
-0.092879 -0.058536 -0.006918 -0.342329 0.224745 0.912304 201 196 178
-0.084915 -0.061928 -0.005129 -0.164336 -0.970016 0.179057 227 228 220
-0.094316 -0.055547 -0.009678 0.104517 0.972457 0.208333 153 155 148
-0.088098 -0.058502 -0.007973 0.278449 0.415447 -0.865951 185 185 174
-0.092888 -0.057135 -0.008409 -0.124277 0.788992 0.601702 191 191 179
-0.072710 -0.063217 -0.006481 0.085724 -0.147076 -0.985404 194 197 184
-0.075448 -0.062518 -0.006701 0.050115 0.086635 -0.994979 193 195 185
-0.072280 -0.063706 -0.006157 0.130930 -0.754891 -0.642649 205 205 193
-0.094208 -0.055779 -0.009670 0.639744 0.366399 -0.675633 153 155 148
-0.093876 -0.057838 -0.007646 -0.174166 0.691614 0.700954 208 197 181
-0.083927 -0.059965 -0.007565 0.224899 0.505413 -0.833053 197 197 184
-0.093012 -0.056721 -0.008980 0.386603 0.916424 -0.103467 197 197 183
-0.074725 -0.062819 -0.006652 0.140393 -0.080489 -0.986818 197 199 187
-0.074156 -0.063367 -0.006257 -0.024981 -0.748883 -0.662231 211 214 200
-0.093895 -0.057216 -0.008463 -0.087087 0.689614 0.718922 197 192 179
-0.078063 -0.063071 -0.005848 -0.165713 -0.986174 0.000091 212 214 206
-0.072917 -0.063639 -0.006351 -0.082070 -0.774976 -0.626640 208 208 195
-0.082024 -0.062691 -0.005468 -0.241125 -0.969147 -0.051102 211 209 201
-0.076074 -0.062754 -0.006668 -0.010986 -0.309585 -0.950808 192 193 183
-0.076096 -0.063344 -0.006079 -0.131494 -0.927128 -0.350919 210 210 197
-0.077086 -0.063222 -0.006024 -0.100759 -0.987168 -0.123879 217 214 206
-0.094936 -0.055818 -0.009867 -0.372750 0.628908 0.682300 184 183 169
-0.075259 -0.063165 -0.006578 -0.059328 -0.462547 -0.884607 198 199 188
-0.075121 -0.063497 -0.006280 -0.047090 -0.972637 -0.227509 207 208 195
-0.081053 -0.062919 -0.005648 -0.187187 -0.980103 -0.066023 211 211 207
-0.094886 -0.055728 -0.010091 0.440376 0.534512 -0.721363 180 181 164
-0.094917 -0.057300 -0.008526 -0.113946 0.769771 0.628067 199 199 179
-0.094932 -0.058033 -0.007852 -0.338518 0.323775 0.883502 200 193 176
-0.080131 -0.061563 -0.007408 0.094051 0.257446 -0.961705 188 187 177
-0.094945 -0.056650 -0.009316 -0.288947 0.606175 0.740987 189 187 172
-0.092291 -0.057282 -0.009256 0.338055 0.440617 -0.831610 202 203 190
-0.077228 -0.062854 -0.006732 0.202194 -0.602068 -0.772419 214 209 196
-0.091169 -0.057836 -0.008956 0.414128 0.328732 -0.848783 203 202 191
-0.093937 -0.058907 -0.007351 -0.401053 0.036039 0.915345 227 222 212
-0.077918 -0.062374 -0.007207 0.328507 0.034443 -0.943874 185 183 174
-0.091026 -0.060537 -0.006451 -0.352484 -0.504816 0.787982 242 238 235
-0.095959 -0.057392 -0.008628 -0.193757 0.678128 0.708942 204 197 179
-0.087197 -0.059623 -0.008194 0.216303 0.356620 -0.908865 204 202 192
-0.092994 -0.059682 -0.006931 -0.404411 -0.318314 0.857396 236 230 231
-0.095734 -0.056053 -0.010061 -0.285872 0.682031 0.673135 166 164 159
-0.095818 -0.055579 -0.010543 -0.084971 0.970808 0.224306 166 166 155
-0.090030 -0.060855 -0.006379 -0.322508 -0.685140 0.653125 239 235 223
-0.087051 -0.061774 -0.006066 -0.263219 -0.808704 0.526035 218 218 210
-0.090095 -0.058569 -0.008700 0.385283 0.304857 -0.870987 205 205 193
-0.080126 -0.063001 -0.006271 -0.083461 -0.995041 -0.054098 214 216 204
-0.091999 -0.060133 -0.006711 -0.388854 -0.420082 0.819953 244 236 235
-0.083095 -0.062361 -0.006316 -0.174389 -0.982235 -0.069303 212 207 202
-0.084088 -0.062181 -0.006309 -0.170372 -0.984296 0.046202 213 209 204
-0.085071 -0.062058 -0.006230 -0.080404 -0.996683 0.012579 211 210 205
-0.082112 -0.062601 -0.006299 -0.284123 -0.949884 -0.130364 214 210 202
-0.095977 -0.056739 -0.009382 -0.129098 0.737683 0.662689 200 191 176
-0.078147 -0.063050 -0.006688 -0.013167 -0.971875 -0.235130 200 200 193
-0.079134 -0.063020 -0.006519 -0.021064 -0.993530 -0.111594 216 216 205
-0.094643 -0.056245 -0.010214 0.524360 0.316316 -0.790564 174 176 165
-0.078939 -0.062216 -0.007420 0.139617 0.049092 -0.988988 185 183 174
-0.088993 -0.061332 -0.006236 -0.310070 -0.725369 0.614571 225 225 219
-0.088024 -0.061588 -0.006191 -0.190342 -0.925707 0.326859 222 218 211
-0.086113 -0.062018 -0.006165 -0.112281 -0.991188 0.070283 212 212 204
-0.089056 -0.059164 -0.008506 0.297783 0.296957 -0.907271 207 207 195
-0.096107 -0.055578 -0.010717 -0.273501 0.961869 0.002101 176 177 168
-0.078249 -0.062749 -0.007244 0.187466 -0.478385 -0.857907 177 175 167
-0.086252 -0.060163 -0.008210 0.224998 0.392707 -0.891717 144 144 138
-0.096026 -0.055709 -0.010775 0.339753 0.406183 -0.848282 176 177 168
-0.081718 -0.061789 -0.007585 0.127897 -0.010917 -0.991728 194 194 183
-0.088349 -0.059630 -0.008462 0.221178 0.291860 -0.930537 207 207 195
-0.096999 -0.056856 -0.009487 -0.185236 0.748481 0.636760 203 199 185
-0.079078 -0.062792 -0.007256 0.005957 -0.716697 -0.697360 157 157 151
-0.080508 -0.062833 -0.006947 -0.066305 -0.944587 -0.321495 191 189 185
-0.097022 -0.057635 -0.008849 -0.408221 0.265674 0.873369 203 191 177
-0.097045 -0.056231 -0.010299 -0.161420 0.814656 0.557027 193 192 179
-0.080315 -0.062451 -0.007502 0.044480 -0.294020 -0.954764 197 195 186
-0.081187 -0.062828 -0.007014 -0.208557 -0.942035 -0.262821 211 214 201
-0.081965 -0.062446 -0.007262 -0.173589 -0.831240 -0.528116 205 199 193
-0.081175 -0.062610 -0.007406 -0.075963 -0.650259 -0.755905 169 169 163
-0.096902 -0.055936 -0.010979 0.132078 0.939602 -0.315758 189 190 181
-0.098058 -0.057017 -0.009642 -0.221726 0.722942 0.654364 205 199 182
-0.086184 -0.061795 -0.007330 -0.141348 -0.981913 -0.125967 212 210 205
-0.083678 -0.061490 -0.008176 0.359958 0.128398 -0.924091 197 197 184
-0.087165 -0.061684 -0.007251 -0.089055 -0.992960 -0.078098 211 210 203
-0.091976 -0.058415 -0.009583 0.400676 0.302473 -0.864853 206 205 194
-0.098076 -0.056387 -0.010436 -0.189303 0.770623 0.608527 200 195 183
-0.088163 -0.061617 -0.007208 -0.115507 -0.993269 -0.008616 213 208 200
-0.085205 -0.061999 -0.007504 -0.216470 -0.969124 -0.118066 212 213 202
-0.098068 -0.055763 -0.011199 -0.085008 0.871954 0.482151 194 185 174
-0.090193 -0.061418 -0.007090 -0.221550 -0.956590 0.189345 213 212 204
-0.090982 -0.059122 -0.009335 0.416894 0.282021 -0.864097 204 204 192
-0.089171 -0.061499 -0.007311 -0.120356 -0.992510 -0.020902 214 210 203
-0.096080 -0.059101 -0.008331 -0.479526 -0.368070 0.796605 239 233 230
-0.083634 -0.062023 -0.007959 0.168504 -0.790225 -0.589194 163 165 157
-0.099399 -0.054272 -0.012558 0.452882 0.799218 0.395156 181 183 171
-0.095115 -0.059582 -0.008055 -0.439934 -0.455352 0.774024 243 237 239
-0.094117 -0.060036 -0.007803 -0.364131 -0.671332 0.645539 240 235 227
-0.084233 -0.062188 -0.007687 -0.069531 -0.982500 -0.172798 210 210 200
-0.091156 -0.061200 -0.007248 -0.278046 -0.898405 0.339939 215 216 206
-0.097749 -0.057953 -0.009179 -0.470632 0.107974 0.875698 214 209 191
-0.092135 -0.060912 -0.007348 -0.313478 -0.867190 0.386930 221 219 211
-0.085613 -0.061141 -0.008491 0.025095 0.118807 -0.992600 200 199 187
-0.097127 -0.058480 -0.008796 -0.475281 -0.120560 0.871535 223 218 207
-0.093178 -0.060481 -0.007667 -0.416734 -0.602940 0.680291 228 224 216
-0.088829 -0.060319 -0.008745 0.206548 0.105051 -0.972781 207 207 198
-0.099096 -0.056511 -0.010553 -0.212855 0.741922 0.635803 206 199 185
-0.087913 -0.060671 -0.008663 0.126219 0.122787 -0.984374 208 207 198
-0.086734 -0.061035 -0.008595 0.107105 0.070032 -0.991778 202 201 191
-0.089975 -0.059945 -0.009066 0.405812 0.129520 -0.904733 205 206 196
-0.099127 -0.055924 -0.011378 -0.172610 0.812912 0.556219 195 193 180
-0.086073 -0.061593 -0.008386 -0.121116 -0.768115 -0.628753 193 192 183
-0.099278 -0.054736 -0.012630 0.828881 0.426638 -0.361851 185 185 171
-0.098454 -0.055521 -0.012016 0.575808 0.765543 -0.287034 185 184 171
-0.099132 -0.057396 -0.010021 -0.487053 0.142010 0.861750 203 194 180
-0.084675 -0.061705 -0.008664 -0.002933 0.031911 -0.999486 181 181 173
-0.084835 -0.061857 -0.008526 -0.205024 -0.788825 -0.579414 200 200 190
-0.094038 -0.058077 -0.010457 0.418922 0.309329 -0.853710 191 192 179
-0.084518 -0.061835 -0.008652 0.206179 -0.445795 -0.871066 181 181 173
-0.087372 -0.061373 -0.008591 0.026834 -0.471925 -0.881231 202 202 194
-0.096727 -0.056714 -0.011383 0.433412 0.336917 -0.835847 200 200 191
-0.099169 -0.055353 -0.012265 -0.103077 0.730528 0.675058 181 183 171
-0.100165 -0.056042 -0.011457 -0.221221 0.757141 0.614653 202 198 186
-0.100164 -0.056763 -0.010768 -0.346845 0.572404 0.743002 199 195 179
-0.088465 -0.061215 -0.008689 0.016481 -0.277603 -0.960554 213 212 203
-0.091243 -0.061171 -0.008179 -0.177150 -0.981930 -0.066572 211 209 198
-0.090263 -0.061309 -0.008278 -0.137170 -0.985102 -0.103721 211 208 201
-0.089280 -0.061436 -0.008417 -0.095500 -0.872258 -0.479632 210 211 203
-0.089488 -0.060965 -0.008862 0.224791 -0.325948 -0.918274 211 212 199
-0.093227 -0.058854 -0.010290 0.410063 0.167704 -0.896506 204 205 195
-0.088298 -0.061584 -0.008543 -0.099916 -0.910029 -0.402322 210 211 200
-0.100204 -0.055496 -0.012365 -0.151922 0.841908 0.517793 191 189 175
-0.097585 -0.056533 -0.011912 0.604452 0.356753 -0.712296 201 197 185
-0.100206 -0.054839 -0.013111 -0.509715 0.307624 0.803466 187 183 169
-0.094292 -0.060589 -0.008579 -0.310367 -0.856267 0.412892 214 215 203
-0.097267 -0.059361 -0.009257 -0.505544 -0.374221 0.777421 209 201 202
-0.099225 -0.058263 -0.009969 -0.528796 -0.192415 0.826651 228 224 222
-0.100188 -0.054539 -0.013565 0.663255 0.400902 -0.631958 181 180 171
-0.096241 -0.059923 -0.008910 -0.446357 -0.516928 0.730445 226 222 215
-0.092283 -0.060891 -0.008772 -0.206934 -0.971115 -0.118808 205 210 197
-0.098204 -0.058849 -0.009619 -0.509010 -0.380825 0.771933 235 230 232
-0.099852 -0.057756 -0.010392 -0.519533 0.083241 0.850386 228 224 213
-0.100930 -0.054177 -0.013844 -0.508789 0.672547 0.537415 182 181 171
-0.090322 -0.061200 -0.008917 0.034559 -0.905777 -0.422343 198 197 189
-0.091020 -0.060272 -0.009721 0.427824 0.074452 -0.900791 205 205 195
-0.095833 -0.057807 -0.011253 0.428822 0.179107 -0.885456 203 201 189
-0.095247 -0.060382 -0.008758 -0.235724 -0.954249 0.183968 218 216 205
-0.101203 -0.056268 -0.011711 -0.334774 0.618069 0.711278 204 196 178
-0.101216 -0.055620 -0.012461 -0.151090 0.849611 0.505305 198 195 180
-0.090641 -0.060782 -0.009417 0.408555 -0.340883 -0.846688 208 208 194
-0.092073 -0.059916 -0.010044 0.280634 0.024306 -0.959507 204 205 196
-0.093320 -0.060760 -0.009180 -0.098563 -0.963854 -0.247529 207 207 198
-0.101258 -0.055097 -0.013349 -0.326550 0.752963 0.571326 188 191 180
-0.091458 -0.060611 -0.009866 0.166627 -0.384783 -0.907842 179 181 172
-0.091367 -0.061054 -0.009442 -0.072568 -0.893636 -0.442886 187 187 178
-0.101272 -0.054456 -0.014123 -0.597358 0.641793 0.480900 181 181 170
-0.099220 -0.055814 -0.013176 0.683553 0.294265 -0.667954 205 201 189
-0.102241 -0.055754 -0.012628 -0.351434 0.604796 0.714643 192 189 173
-0.092255 -0.060566 -0.009827 -0.075198 -0.735311 -0.673545 206 208 197
-0.102268 -0.056553 -0.012020 -0.493608 0.303075 0.815166 187 179 170
-0.093580 -0.060018 -0.010339 0.239722 -0.538350 -0.807906 206 207 197
-0.102294 -0.055222 -0.013472 -0.139702 0.868979 0.474719 200 196 184
-0.094199 -0.059470 -0.010851 0.424568 -0.084137 -0.901478 204 206 194
-0.094354 -0.060351 -0.010038 0.008457 -0.939788 -0.341655 208 208 198
-0.101578 -0.054284 -0.014758 0.484476 0.874449 -0.024945 177 178 161
-0.097050 -0.057980 -0.011988 0.598454 0.136867 -0.789379 202 197 189
-0.097398 -0.060003 -0.009922 -0.197526 -0.980284 -0.005117 215 211 199
-0.096389 -0.060154 -0.010043 -0.111670 -0.989540 -0.091326 214 207 197
-0.095394 -0.060344 -0.010065 -0.061102 -0.973808 -0.219005 209 207 195
-0.102126 -0.054043 -0.015087 -0.451903 0.594556 0.665046 178 172 161
-0.101340 -0.057896 -0.011344 -0.569106 -0.223706 0.791248 186 179 180
-0.099347 -0.059085 -0.010560 -0.544075 -0.435495 0.717165 229 225 219
-0.100386 -0.058464 -0.010974 -0.541316 -0.461116 0.703100 240 232 234
-0.103329 -0.055318 -0.013575 -0.175127 0.824311 0.538370 204 200 183
-0.102112 -0.054643 -0.014523 -0.294169 0.814781 0.499596 182 184 173
-0.102348 -0.053411 -0.015801 0.571967 0.805741 0.153739 158 158 141
-0.098356 -0.059764 -0.010163 -0.443921 -0.743083 0.500760 192 191 183
-0.102393 -0.053376 -0.015856 -0.514536 0.644911 0.565104 158 158 141
-0.102372 -0.053409 -0.015858 0.823038 0.296565 -0.484414 158 158 141
-0.095086 -0.059518 -0.011209 0.330064 -0.156499 -0.930895 205 206 193
-0.103345 -0.056117 -0.012951 -0.420883 0.526304 0.738824 201 197 183
-0.094707 -0.059974 -0.010842 0.204618 -0.718546 -0.664698 205 208 196
-0.103325 -0.054822 -0.014472 -0.047035 0.904971 0.422865 194 194 183
-0.101816 -0.054417 -0.015403 0.777043 0.191313 -0.599668 173 173 157
-0.100956 -0.055303 -0.014708 0.686511 0.238957 -0.686734 180 184 170
-0.095696 -0.059986 -0.011044 0.107642 -0.840026 -0.531762 208 209 195
-0.102792 -0.053457 -0.016336 -0.284605 0.954963 0.083939 165 160 148
-0.104418 -0.054909 -0.014542 -0.123105 0.869464 0.478410 207 200 185
-0.098464 -0.059758 -0.010912 -0.211337 -0.977409 0.003180 207 206 198
-0.103389 -0.054348 -0.015406 0.076791 0.921481 0.380757 190 183 180
-0.098101 -0.058001 -0.012832 0.597770 0.135982 -0.790050 182 178 169
-0.102720 -0.054521 -0.015548 -0.296192 0.792038 0.533804 180 179 174
-0.097492 -0.059935 -0.011127 -0.044539 -0.968484 -0.245060 210 205 197
-0.096504 -0.060052 -0.011222 0.000250 -0.920294 -0.391228 208 206 194
-0.096954 -0.059480 -0.011780 0.364341 -0.508729 -0.780033 204 202 192
-0.102813 -0.053749 -0.016436 0.667090 0.045104 -0.743610 165 160 148
-0.104443 -0.054424 -0.015476 -0.083561 0.914054 0.396892 200 196 184
-0.104901 -0.055850 -0.014088 -0.538961 0.314207 0.781534 216 211 203
-0.104331 -0.056605 -0.013445 -0.612254 0.010332 0.790594 236 229 225
-0.103295 -0.053552 -0.016772 0.120745 0.855463 -0.503592 158 152 143
-0.099517 -0.059561 -0.011443 -0.211283 -0.970158 -0.118968 209 205 195
-0.101498 -0.058678 -0.011950 -0.534460 -0.455045 0.712241 226 223 215
-0.102491 -0.058093 -0.012352 -0.563702 -0.367841 0.739549 236 229 226
-0.103456 -0.057426 -0.012847 -0.615671 -0.223222 0.755726 237 230 231
-0.103345 -0.053951 -0.016436 -0.361270 0.769328 0.526894 179 172 164
-0.100577 -0.059233 -0.011667 -0.370175 -0.888112 0.272447 212 206 200
-0.105460 -0.055149 -0.014814 -0.447330 0.499584 0.741830 169 169 162
-0.097551 -0.059690 -0.011842 0.220032 -0.867119 -0.446868 206 204 193
-0.105469 -0.054517 -0.015573 -0.141611 0.863875 0.483390 210 205 189
-0.097703 -0.058971 -0.012682 0.597209 -0.016841 -0.801909 169 165 158
-0.100233 -0.056925 -0.014472 0.620083 0.119273 -0.775417 215 212 197
-0.097856 -0.059240 -0.012674 0.205719 -0.735495 -0.645545 179 177 171
-0.098584 -0.059592 -0.012233 0.021085 -0.901232 -0.432823 204 202 192
-0.104527 -0.054095 -0.016599 -0.099844 0.951721 0.290271 185 187 175
-0.103929 -0.053746 -0.017161 -0.057352 0.990415 -0.125656 166 162 151
-0.098582 -0.058958 -0.013089 0.362814 -0.492341 -0.791180 204 199 190
-0.105542 -0.054103 -0.016582 -0.004080 0.956596 0.291388 194 199 186
-0.099474 -0.057965 -0.013963 0.636245 -0.002247 -0.771484 208 202 190
-0.106546 -0.054101 -0.016603 -0.061520 0.918446 0.390732 205 202 191
-0.103912 -0.053976 -0.017283 0.544656 0.046878 -0.837348 166 162 151
-0.099631 -0.059177 -0.013165 -0.012097 -0.959505 -0.281429 205 201 189
-0.104416 -0.053862 -0.017616 0.168331 0.864386 -0.473815 168 168 155
-0.104499 -0.053865 -0.017604 -0.062935 0.991893 -0.110395 168 168 155
-0.102411 -0.055874 -0.016020 0.592596 -0.040440 -0.804484 160 162 148
-0.102609 -0.058711 -0.013098 -0.339985 -0.933997 0.109818 213 208 195
-0.107052 -0.054965 -0.016011 -0.537117 0.364754 0.760565 225 221 214
-0.100647 -0.059116 -0.013129 -0.070637 -0.994686 -0.074894 202 201 191
-0.103589 -0.058357 -0.013288 -0.583986 -0.464451 0.665767 159 157 147
-0.104620 -0.057550 -0.013901 -0.644290 -0.192187 0.740239 233 228 225
-0.105856 -0.056495 -0.014733 -0.649073 -0.134453 0.748750 234 227 229
-0.106643 -0.055740 -0.015356 -0.595455 0.215506 0.773945 231 225 229
-0.101649 -0.059042 -0.013056 -0.170885 -0.984799 -0.031120 208 200 196
-0.107586 -0.054258 -0.016736 -0.422868 0.575011 0.700389 164 166 157
-0.105605 -0.053796 -0.017695 0.082155 0.996619 -0.000464 180 182 173
-0.106627 -0.053776 -0.017646 0.047310 0.962374 0.267578 194 194 182
-0.100329 -0.058059 -0.014634 0.537443 -0.136628 -0.832159 202 200 191
-0.103321 -0.055408 -0.016717 0.537376 -0.131998 -0.832949 150 147 140
-0.107623 -0.053728 -0.017600 -0.036674 0.922979 0.383099 199 199 185
-0.104927 -0.053985 -0.017959 0.477813 0.621418 -0.620914 170 167 156
-0.100027 -0.058667 -0.014215 0.484601 -0.449992 -0.750112 206 202 193
-0.101419 -0.057355 -0.015323 0.522538 -0.081309 -0.848730 154 152 144
-0.108669 -0.053870 -0.017738 -0.274074 0.767575 0.579406 179 169 156
-0.100924 -0.058545 -0.014739 0.292175 -0.476475 -0.829220 204 198 189
-0.102734 -0.058781 -0.014178 -0.224583 -0.974201 -0.022237 204 202 186
-0.100766 -0.059016 -0.014385 0.042606 -0.902184 -0.429240 203 199 184
-0.101756 -0.058903 -0.014304 -0.020271 -0.928243 -0.371422 198 200 188
-0.106733 -0.053503 -0.018776 0.287129 0.939063 -0.188993 182 184 172
-0.107706 -0.053414 -0.018678 0.097000 0.962759 0.252359 192 194 179
-0.108710 -0.053345 -0.018631 -0.041193 0.921547 0.386076 199 198 186
-0.104956 -0.054829 -0.017921 0.591759 -0.233546 -0.771542 166 162 153
-0.104184 -0.055800 -0.017114 0.444182 -0.271421 -0.853834 177 172 162
-0.104742 -0.058097 -0.014748 -0.276845 -0.960064 0.040409 211 201 193
-0.108732 -0.054817 -0.017278 -0.590779 0.269242 0.760585 231 223 227
-0.106419 -0.057172 -0.015368 -0.668802 -0.352878 0.654356 227 223 212
-0.103768 -0.058443 -0.014632 -0.347151 -0.932075 0.103546 203 200 190
-0.108141 -0.055583 -0.016631 -0.657760 0.027071 0.752741 234 226 226
-0.107332 -0.056357 -0.016013 -0.671624 -0.154011 0.724707 234 227 229
-0.105769 -0.057666 -0.015065 -0.522833 -0.764161 0.377762 213 212 202
-0.105760 -0.053858 -0.018955 0.144262 0.630600 -0.762582 162 157 150
-0.103574 -0.056692 -0.016566 0.377077 -0.262307 -0.888262 167 167 155
-0.105817 -0.053968 -0.018967 0.531355 -0.060583 -0.844981 162 157 150
-0.109767 -0.053494 -0.018767 -0.307599 0.743659 0.593594 155 154 143
-0.102340 -0.058294 -0.015580 0.384129 -0.584157 -0.714986 197 193 181
-0.102830 -0.057743 -0.016082 0.358105 -0.240760 -0.902105 191 189 176
-0.108777 -0.053019 -0.019712 0.090213 0.958586 0.270139 192 192 183
-0.109784 -0.052964 -0.019662 -0.149637 0.868714 0.472171 200 197 185
-0.102852 -0.058616 -0.015382 0.029884 -0.904901 -0.424570 197 194 179
-0.103853 -0.058493 -0.015315 -0.208391 -0.962319 -0.174689 199 198 187
-0.104551 -0.056995 -0.016763 0.255563 -0.463557 -0.848412 189 187 174
-0.102886 -0.058243 -0.015916 0.196810 -0.591506 -0.781912 197 193 183
-0.103917 -0.058026 -0.016076 0.072174 -0.606825 -0.791552 197 196 182
-0.105572 -0.056439 -0.017505 0.388611 -0.520633 -0.760213 186 184 173
-0.110824 -0.053118 -0.019794 -0.192165 0.843167 0.502136 158 156 150
-0.106048 -0.055356 -0.018534 0.552656 -0.413035 -0.723859 177 173 162
-0.104555 -0.058202 -0.015991 -0.037067 -0.871031 -0.489827 198 197 183
-0.105219 -0.057856 -0.016231 0.021972 -0.822746 -0.567984 201 197 183
-0.107596 -0.057028 -0.016694 -0.661231 -0.549710 0.510483 219 218 206
-0.109532 -0.055454 -0.017899 -0.694509 -0.180417 0.696496 232 225 226
-0.110183 -0.054689 -0.018550 -0.649091 0.133474 0.748910 233 223 230
-0.107885 -0.053235 -0.020520 0.628728 0.649919 -0.426973 179 176 166
-0.106871 -0.057556 -0.016329 -0.451395 -0.873982 0.179995 209 205 193
-0.110774 -0.053951 -0.019199 -0.581928 0.318885 0.748113 230 219 230
-0.105896 -0.057925 -0.016172 -0.207582 -0.970823 -0.120050 206 200 187
-0.108678 -0.056264 -0.017283 -0.688213 -0.388373 0.612805 228 222 213
-0.109857 -0.052627 -0.020755 0.205885 0.970186 0.127868 193 191 180
-0.110868 -0.052591 -0.020698 -0.123984 0.885365 0.448058 139 137 132
-0.107351 -0.053857 -0.020165 0.728836 0.103258 -0.676857 180 178 168
-0.108908 -0.052879 -0.020965 0.416295 0.894977 -0.160358 182 181 171
-0.106565 -0.057393 -0.017040 0.116774 -0.811959 -0.571914 201 199 185
-0.107082 -0.054946 -0.019577 0.553935 -0.420421 -0.718611 181 177 166
-0.111928 -0.052750 -0.020847 -0.357630 0.694849 0.623927 196 194 180
-0.110937 -0.052253 -0.021762 0.113421 0.964105 0.240078 192 192 181
-0.108311 -0.053422 -0.021253 0.770562 0.289263 -0.567945 180 177 168
-0.111950 -0.052213 -0.021732 -0.074332 0.905848 0.417030 170 167 157
-0.107136 -0.056392 -0.018534 0.411413 -0.627312 -0.661226 188 185 173
-0.109981 -0.052500 -0.021993 0.363889 0.931399 -0.009006 185 182 169
-0.107991 -0.057400 -0.017673 -0.240281 -0.945598 -0.219342 203 201 188
-0.108987 -0.056698 -0.018184 -0.586837 -0.783643 0.203780 212 209 191
-0.111604 -0.054562 -0.019814 -0.690599 -0.063834 0.720415 233 223 230
-0.109816 -0.056136 -0.018587 -0.533217 -0.805079 0.259862 225 218 207
-0.110772 -0.055344 -0.019202 -0.714107 -0.262774 0.648846 226 221 218
-0.112327 -0.053828 -0.020472 -0.642302 0.136920 0.754122 231 220 227
-0.112994 -0.052368 -0.021871 -0.352544 0.693939 0.627822 194 193 181
-0.108173 -0.057039 -0.018262 0.108816 -0.879237 -0.463790 199 196 187
-0.112013 -0.051860 -0.022784 0.199812 0.967081 0.157570 196 194 180
-0.108310 -0.054570 -0.020865 0.618848 -0.445859 -0.646712 187 184 172
-0.113014 -0.051835 -0.022739 -0.126080 0.878655 0.460509 156 155 143
-0.109093 -0.053072 -0.022299 0.674902 0.683687 -0.277635 168 170 157
-0.113020 -0.053250 -0.021333 -0.534459 0.445047 0.718532 227 219 225
-0.111063 -0.052117 -0.022976 0.299497 0.953131 0.042933 185 184 172
-0.108988 -0.053531 -0.022316 0.730895 -0.343447 -0.589777 163 158 150
-0.109043 -0.056717 -0.019103 -0.093166 -0.923161 -0.372953 201 197 188
-0.114057 -0.051986 -0.022888 -0.196307 0.834272 0.515222 199 190 179
-0.108752 -0.056305 -0.019606 0.306823 -0.727168 -0.614075 194 190 179
-0.113085 -0.051472 -0.023792 0.136886 0.966125 0.218777 195 194 183
-0.109656 -0.056390 -0.019561 -0.215670 -0.954874 -0.204211 203 200 182
-0.114103 -0.051449 -0.023779 -0.096362 0.895976 0.433522 201 200 192
-0.113657 -0.053639 -0.021722 -0.705639 -0.090612 0.702755 228 220 222
-0.111113 -0.055895 -0.019962 -0.488292 -0.833211 0.259479 210 205 193
