126.217  50.1459  419.194  0.540709  0.367071  -0.756897
118.211  74.4329  440.888  -0.814595  0.374448  -0.442971
118.87  76.1381  441.884  -0.789728  0.463873  -0.401436
119.25  76.6539  441.925  -0.557769  0.585788  -0.588002
126.737  43.1476  416.877  0.687844  0.242435  -0.684175
224.199  -27.8536  472.87  0.00534668  0.415393  -0.909626
223.238  -28.8638  473  -0.654866  0.298874  -0.694137
223.252  -27.3197  473.865  -0.746408  0.56748  -0.347624
224.123  -26.2445  474.803  -0.633621  0.762807  0.12903
224.149  -26.6611  473.848  -0.227117  0.741312  -0.631565
125.203  50.1492  419.127  0.0466112  0.412582  -0.909727
119.061  74.0987  439.929  -0.78314  0.138502  -0.606225
118.459  74.1594  440.984  -0.792621  -0.609547  0.0143254
225.088  -25.7211  474.974  -0.375024  0.692539  -0.616236
225.198  -26.856  473.911  0.177484  0.614914  -0.768362
225.214  -30.5691  455.877  -0.236765  0.964003  0.121001
225.223  -30.4202  454.862  -0.200132  0.974981  0.0967446
121.195  76.8453  441.88  0.515637  0.734018  -0.441969
172.861  -29.1113  406.444  0.953303  -0.07342  -0.292955
129.199  -27.9468  419.875  -0.0381156  0.983811  0.175109
150.201  -23.8698  392.555  -0.00391813  0.347911  -0.937519
130.207  -28.4256  422.865  0.0649039  0.980881  0.183464
130.209  -28.6094  423.888  0.110872  0.982284  0.151083
132.2  -28.5046  421.875  -0.0149202  0.956209  0.292304
118.174  76.1497  442.874  -0.896468  0.270893  -0.350659
118.247  77.138  443.891  -0.790941  0.425422  -0.439804
118.943  77.1379  442.885  -0.687107  0.541525  -0.484392
223.2  -31.0334  460.875  -0.0215461  0.997516  0.0670649
119.19  80.1105  445.887  -0.364439  0.679614  -0.636639
127.931  28.1398  412.896  0.920736  0.138207  -0.36489
122.424  74.1507  441.511  0.567964  -0.470674  0.675191
122.929  73.3291  440.759  0.464534  -0.567501  0.679817
121.917  76.2993  444.476  0.913054  -0.31799  0.255373
215.425  -31.1367  439.977  0.171692  0.632762  -0.755073
115.912  83.1449  451.873  -0.823945  0.271179  -0.497571
214.411  -30.67  440.515  -0.0723237  0.990705  -0.115206
122.712  73.11  437.894  0.793036  0.532093  -0.296599
172.221  -28.9447  401.899  0.778218  -0.396219  -0.487224
132.2  -28.8516  423.593  0.042722  0.942959  0.330156
121.805  77.1365  443.879  0.96061  0.275422  -0.0370173
216.372  -30.7834  440.578  0.150048  0.84149  -0.519019
216.799  -30.5846  441.18  0.064755  0.955782  -0.286857
133.2  -29.8516  425.729  0.442971  0.859234  0.255917
221.408  -30.2614  442.761  -0.00413314  0.937131  -0.348953
121.977  76.1382  441.889  0.79386  0.556762  -0.244546
133.185  -30.1513  427.89  0.453113  0.885758  0.100607
135.198  -31.1292  431.879  0.412952  0.910102  -0.0344404
134.186  -30.7488  429.878  0.589538  0.793754  -0.149664
121.207  75.5051  439.875  0.1938  0.793955  -0.576261
121.184  76.2206  440.864  0.173944  0.797379  -0.577868
134.172  -33.948  429.899  0.591902  -0.561956  -0.577804
133.199  -34.5933  431.873  -0.11309  -0.980326  -0.161775
122.208  76.1114  444.887  0.201998  0.941311  0.270428
122.199  76.1285  444.88  -0.430559  -0.806917  0.404355
120.888  80.1504  447.872  0.949963  0.311118  0.0278584
120.203  77.8567  442.895  -0.300371  0.749436  -0.590019
129.201  -30.5688  430.879  -0.0160745  0.957184  0.289032
122.342  75.1371  440.88  0.853044  0.485641  -0.190966
128.574  -30.9224  431.67  -0.386016  0.766175  0.513779
137.201  -31.7423  434.868  0.296951  0.950596  -0.0904863
138.182  -32.2608  434.398  0.499398  0.777848  -0.381515
136.19  -31.456  433.875  0.351287  0.93499  -0.0489082
221.199  -33.729  446.876  0.164235  -0.978816  -0.122255
222.196  -33.564  446.878  0.159147  -0.97859  -0.130513
222.199  -33.6876  447.876  0.148175  -0.982315  -0.114466
220.204  -33.8963  446.872  0.166852  -0.97744  -0.129502
220.2  -34.031  447.875  0.174407  -0.977472  -0.118869
122.124  76.1389  442.876  0.980879  0.145327  0.129444
223.85  -31.0842  441.719  0.195153  0.487541  -0.851011
222.671  -31.6295  441.252  0.167771  0.382434  -0.908624
220.926  -32.964  441.289  0.0824825  -0.952804  -0.292166
224.224  -30.7773  442.037  0.212979  0.675101  -0.706313
224.092  -30.8717  441.898  0.130387  0.661982  -0.738092
223.431  -30.833  441.913  0.047939  0.733967  -0.677491
176.201  -29.1821  415.882  -0.0275867  0.970533  0.239385
223.175  -27.5206  476.867  -0.515752  0.856609  -0.0148334
223.304  -27.4322  478.006  -0.75772  0.647436  0.0817734
224.417  -26.8127  477.744  -0.749386  0.557339  -0.357483
146.2  -37.2953  441.873  -0.0858694  -0.989923  -0.1126
126.338  56.1417  422.884  0.976696  0.180732  -0.115765
126.583  54.8104  422.665  0.983415  0.180996  -0.0116646
126.208  55.154  421.875  0.835958  0.316562  -0.448289
126.084  58.1424  423.881  0.970478  0.194294  -0.142906
126.138  57.083  424.053  0.895638  -0.0996377  0.43348
142.201  -36.5813  438.884  -0.0209028  -0.971621  -0.235617
141.983  -36.3252  438.125  0.0786989  -0.924708  -0.372452
147.203  -37.2927  440.876  -0.0818687  -0.996057  -0.0341741
147.202  -36.9409  438.873  -0.0478446  -0.884128  -0.464789
224.202  -33.9807  453.874  0.156012  -0.984293  -0.0826243
224.2  -33.8958  452.875  0.150556  -0.985164  -0.0823708
143.132  -36.528  438.871  0.0415691  -0.943035  -0.330087
124.213  55.1437  421.968  -0.61646  0.331068  -0.714403
124.199  54.1505  421.531  -0.701261  0.292907  -0.649953
140.202  -36.7451  440.879  -0.067946  -0.985663  -0.154439
148.204  -37.3637  440.878  -0.0586438  -0.997508  -0.0392181
124.201  58.1471  423.497  -0.51985  0.401104  -0.754236
124.193  57.1467  422.96  -0.518305  0.395401  -0.758299
148.2  -36.9695  438.867  0.00215073  -0.724835  -0.68892
148.2  -37.3108  439.885  -0.026485  -0.975686  -0.217569
125.2  58.1505  423.078  0.0286698  0.53978  -0.841318
125.216  59.1582  423.755  -0.0717201  0.561071  -0.824655
125.863  57.1461  422.871  0.590629  0.45878  -0.663836
124.192  60.1499  424.611  -0.402418  0.467652  -0.786995
123.209  61.1427  425.96  -0.558929  0.430721  -0.708574
124.185  61.1466  425.218  -0.400968  0.484648  -0.777394
222.203  -33.3006  444.873  0.16074  -0.979635  -0.120327
223.201  -33.2551  445.872  0.0240772  -0.992236  -0.122018
222.203  -33.4282  445.873  0.168842  -0.977286  -0.128078
121.769  65.1995  429.806  -0.759745  0.406553  -0.507447
121.731  65.1004  429.914  -0.984314  0.174959  0.0226968
122.179  66.1683  430.167  -0.747891  0.428137  -0.507304
142.846  -36.2047  437.983  0.144307  -0.863811  -0.482707
126.559  54.147  421.878  0.910179  0.273877  -0.31075
223.702  -26.9737  478.107  -0.488314  0.74187  -0.459542
223.617  -26.8964  478.449  -0.878676  0.43436  -0.198142
220.192  -30.6444  448.882  -0.182748  0.973911  0.13454
118.303  75.2168  442.895  -0.825365  -0.511908  0.238166
117.995  76.1606  443.858  -0.991608  -0.070763  -0.108192
120.201  77.0584  441.882  -0.152811  0.777085  -0.610564
168.199  -36.2987  431.877  0.140025  -0.984201  -0.108356
169.204  -36.175  431.869  0.0959766  -0.988179  -0.119546
226.2  -26.8601  474.286  0.46986  0.321991  -0.821921
118.312  75.7011  444.219  -0.535855  -0.831829  0.14464
117.804  77.1639  444.866  -0.960794  0.0143801  -0.276891
216.2  -34.2607  444.875  0.137725  -0.98532  -0.100877
215.2  -34.3142  443.875  0.145348  -0.982284  -0.118285
218.201  -33.8478  443.874  0.158842  -0.979735  -0.122017
169.2  -36.6258  434.876  0.0260997  -0.988656  -0.147912
122.172  73.644  437.905  0.466811  0.748578  -0.470871
122.193  72.9655  436.883  0.537718  0.711817  -0.451859
121.23  73.9607  437.872  -0.0408524  0.78465  -0.618591
226.62  -31.8574  446.871  0.973798  -0.194588  0.117703
226.339  -30.853  447.878  0.960181  0.253383  0.117687
226.471  -31.844  447.868  0.971844  -0.167047  0.166178
170.2  -36.1257  431.875  0.026396  -0.986428  -0.162061
170.201  -35.9672  430.872  0.0559327  -0.987064  -0.150253
121.125  74.7624  438.827  -0.178292  0.727431  -0.662614
120.216  76.2561  440.854  -0.225154  0.739506  -0.634379
215.217  -30.6411  441.861  -0.150516  0.983382  0.101516
214.2  -31.0125  444.875  -0.0719273  0.995793  0.0567692
215.2  -30.9968  445.875  -0.0941799  0.992628  0.0762824
221.2  -33.9475  448.875  0.156964  -0.981286  -0.111535
222.202  -33.8014  448.874  0.129158  -0.98473  -0.116729
213.441  -30.7995  440.414  -0.0898333  0.990066  -0.108164
213.466  -31.0139  439.725  0.0214189  0.880816  -0.472975
222.203  -33.9173  449.873  0.131103  -0.98578  -0.105117
222.2  -34.0027  450.875  0.135837  -0.986758  -0.0886392
221.2  -34.0825  449.875  0.161438  -0.980983  -0.107753
123.004  73.2627  440.63  0.870336  -0.42893  0.241937
122.802  73.0887  439.836  0.955513  -0.283833  0.0802073
126.831  -15.0183  407.325  0.332136  0.059672  0.941342
133.476  -14.9486  403.697  0.898382  0.419429  -0.130345
214.194  -30.8208  441.88  -0.12573  0.987725  0.0926844
218.202  -33.968  444.874  0.161933  -0.979962  -0.115984
187.229  -35.8361  437.475  0.651647  -0.278398  -0.705585
188.205  -35.8359  438.38  0.714691  -0.151961  -0.682734
188.23  -36.3934  439.058  0.480114  -0.743061  -0.466209
219.2  -33.5483  442.875  0.170246  -0.975629  -0.138434
224.215  -33.2389  444.876  0.134332  -0.981595  -0.135747
224.211  -33.3515  445.871  0.16042  -0.981395  -0.105501
184.199  -36.7873  437.874  -0.0182184  -0.997894  -0.062249
183.201  -36.8119  437.873  0.0277227  -0.992781  -0.11669
183.198  -36.6999  436.877  -0.0415919  -0.998231  -0.042485
221.203  -33.8456  447.873  0.167096  -0.980009  -0.107984
219.436  -32.8281  440.429  0.244385  -0.64313  -0.725713
181.201  -36.748  436.873  0.0381239  -0.990642  -0.131054
181.201  -36.8831  437.873  -0.112794  -0.993597  -0.00649054
180.2  -36.7939  436.874  -0.0488992  -0.998196  -0.0348479
217.315  -32.9529  439.85  0.266798  -0.498755  -0.824659
218.833  -32.6011  440.212  0.263361  -0.0638971  -0.962579
181.201  -36.6165  435.872  0.016167  -0.992976  -0.117209
180.201  -36.6433  435.874  0.0264255  -0.988681  -0.147684
216.199  -34.0949  482.877  0.0457711  0.963134  0.265101
217.325  -34.2817  482.98  0.109874  0.78273  0.612585
217.205  -33.9011  481.87  -0.0664299  0.979502  0.190167
125.018  -28.7295  414.248  -0.831424  0.235067  -0.503466
124.395  -28.8914  414.842  -0.727619  -0.154043  -0.668462
209.2  -35.0383  479.875  -0.16644  0.963222  -0.210952
139.248  -32.6078  435.049  0.478185  0.742885  -0.468466
134.096  -30.8513  428.875  0.587663  0.800565  -0.11725
122.588  -29.6101  416.882  -0.860812  0.14671  -0.487319
123.378  -29.1942  416.256  -0.667763  0.52378  -0.528912
123.171  -29.4743  416.228  -0.53226  0.119747  -0.838069
133.911  -30.8516  427.875  0.640789  0.767382  -0.0226891
211.2  -34.8958  484.876  -0.0905708  0.992308  0.0843893
223.202  -33.6852  448.872  0.0937202  -0.988264  -0.120626
223.202  -33.4025  446.871  0.0449279  -0.988257  -0.146044
223.202  -33.55  447.868  0.0753636  -0.989868  -0.120336
132.203  -30.4153  430.869  -0.230693  0.896418  0.378439
135.215  -31.1532  433.874  0.0571948  0.969411  0.238688
136.208  -31.4491  434.874  0.103024  0.97932  0.17412
225.23  -33.3458  448.878  0.482906  -0.872727  -0.0717598
225.174  -33.4682  449.899  0.368616  -0.913978  -0.169605
224.207  -33.5239  447.872  0.1843  -0.977948  -0.0982447
140.086  -32.345  437.02  0.241479  0.969609  -0.0393269
136.184  -31.5328  432.881  0.445582  0.890545  -0.091577
224.197  -33.6266  448.878  0.112863  -0.987584  -0.109269
223.2  -33.7985  449.874  0.0886175  -0.99084  -0.101896
226.087  -30.8161  449.896  0.858003  0.504449  0.0967564
226.06  -30.6477  450.78  0.466446  0.618865  -0.632008
124.177  -30.1044  415.845  -0.531171  -0.409953  -0.741482
121.992  75.0147  442.515  0.619597  -0.50228  0.603171
207.2  -35.0201  481.875  -0.150262  0.988569  0.0123471
207.199  -35.1404  482.876  -0.138192  0.984247  0.110274
208.198  -35.0059  482.877  -0.121102  0.98623  0.112625
133.201  -32.5531  438.879  0.0555177  0.970175  0.235963
133.2  -32.7948  439.875  0.033908  0.909194  0.41499
223.795  -25.7637  478.632  -0.923077  0.0235499  -0.383894
224.261  -25.8508  477.859  -0.898312  -0.0442358  -0.437125
135.202  -31.9332  435.876  -0.00934674  0.967583  0.252379
138.196  -31.9422  435.876  0.237815  0.970558  -0.0382318
137.226  -31.7115  435.821  0.0701154  0.973874  0.215993
140.39  -32.5979  437.913  0.0890208  0.96077  0.262673
135.197  -31.5785  434.885  -0.118035  0.919742  0.374357
125.206  -30.3093  415.886  -0.140998  -0.942533  -0.302905
123.199  -30.3078  416.873  -0.361651  -0.880852  -0.305465
210.197  -34.6908  481.88  -0.0872359  0.990053  0.110388
211.197  -34.59  481.878  -0.126018  0.985294  0.115391
211.2  -34.4655  480.876  -0.130917  0.983633  0.123802
123.263  28.5874  415.878  -0.114511  -0.162309  0.980073
213.201  -34.0734  479.874  -0.115684  0.987347  0.108459
213.204  -34.1757  480.872  -0.128694  0.986175  0.104388
218.199  -33.1243  475.876  -0.122232  0.985546  0.117293
225.182  -33.094  446.88  0.368523  -0.924594  -0.0965228
226.215  -32.5785  445.863  0.603373  -0.785703  -0.136429
226.158  -32.6854  446.864  0.672877  -0.739628  -0.0136721
225.253  -30.0591  448.892  0.300989  0.938744  0.167829
225.197  -30.1681  449.878  0.293277  0.95201  0.0875513
224.168  -29.8742  448.876  -0.0730326  0.986111  0.149171
224.206  -30.1022  449.878  0.0489032  0.988962  0.13987
222.72  -29.8982  445.581  -0.269693  0.940644  0.206046
223.225  -30.0994  449.875  -0.13908  0.984625  0.105689
166.207  -36.1857  431.887  -0.145576  -0.94031  -0.307613
166.197  -36.4979  432.867  -0.101793  -0.944556  -0.312172
165.185  -36.3763  432.865  -0.260302  -0.87376  -0.410836
217.2  -36.8545  476.875  0.0902038  -0.987703  -0.127694
217.2  -36.8516  476.849  0.103751  -0.98829  -0.111882
217.201  -37.0931  479.875  0.148247  -0.987214  -0.05858
167.183  -36.5862  432.863  0.00775029  -0.977094  -0.212666
166.199  -36.8413  433.886  0.0704193  -0.986029  -0.150959
224.199  -30.1841  450.873  -0.00373864  0.998747  0.0498977
218.162  -36.8721  482.535  0.229315  -0.848276  0.477329
216.848  -37.1873  482.835  0.36343  -0.911503  0.192564
226.215  -30.799  448.889  0.964668  0.236816  0.115474
150.219  -22.55  393.902  -0.17053  0.943031  -0.285679
226.7  -31.8575  445.884  0.97914  -0.203187  0.000789176
164.2  -29.7832  403.875  -0.0170685  -0.968016  -0.250307
164.2  -29.5257  402.876  -0.0164451  -0.966437  -0.256377
162.2  -28.9477  400.873  -0.0178641  -0.965704  -0.25903
162.2  -28.6788  399.879  -0.0142969  -0.964657  -0.263119
163.2  -29.2348  401.872  -0.0169991  -0.965001  -0.261694
164.2  -28.7099  399.877  -0.0131406  -0.965759  -0.259107
165.2  -28.7221  399.877  -0.0113388  -0.966075  -0.258012
151.198  -22.4713  394.858  0.059086  0.955618  0.288624
159.2  -28.6234  399.875  -0.0236569  -0.971458  -0.236031
159.2  -28.3851  398.879  -0.0148923  -0.970323  -0.241353
160.201  -28.6456  399.881  -0.0171758  -0.968266  -0.24933
162.201  -29.2168  401.882  -0.0234874  -0.9667  -0.254832
154.201  -33.8624  440.881  0.0555477  0.962941  0.263929
154.2  -34.0916  441.871  0.0385472  0.975101  0.218383
155.201  -33.9125  440.88  0.0363947  0.97708  0.209737
168.754  -26.0535  402.279  0.0535289  0.997436  -0.0474898
169.323  -26.1644  401.663  0.030958  0.984674  -0.171634
170.53  -26.5376  400.264  0.198234  0.704511  -0.681445
170.61  -26.3112  401.134  0.198682  0.956461  -0.213792
165.193  -26.4012  404.848  -0.0074749  0.943418  0.331521
213.198  -30.9144  441.877  -0.0758953  0.994418  0.0732962
213.197  -30.827  440.879  -0.0751792  0.995105  0.0641388
212.194  -30.8977  440.87  -0.0721203  0.996328  0.0461471
166.198  -26.4754  404.867  0.0663958  0.933348  0.352778
210.187  -31.1253  439.514  0.0350568  0.987218  -0.155471
211.196  -30.965  440.879  -0.0933539  0.995624  0.00425192
211.386  -31.0686  439.711  -0.0225131  0.958823  -0.283112
117.308  76.0769  446  -0.942508  -0.312055  0.119588
117.859  75.841  445.079  -0.475489  -0.87556  -0.0854641
117.318  76.0786  446.002  0.000792402  -0.709693  0.70451
117.527  77.1466  445.885  -0.986359  -0.115912  -0.116875
168.995  -26.077  402.88  0.0311216  0.996612  0.0761251
126.209  51.1578  419.682  0.367363  0.39404  -0.842483
212.265  -30.9284  440.058  -0.0486684  0.97007  -0.237897
124.209  59.1524  424.02  -0.390083  0.472484  -0.790312
125.194  60.1527  424.446  0.0359932  0.55702  -0.829718
226.204  -31.1148  465.871  -0.0945151  0.991592  0.0883887
123.236  58.1352  424.299  -0.654642  0.325172  -0.682427
124.196  56.15  422.456  -0.650724  0.31706  -0.68995
214.33  -30.6925  441.004  -0.152946  0.985938  0.0673259
117.442  79.144  446.878  -0.805152  0.346003  -0.481677
224.716  -24.8681  476.689  -0.932722  0.0571484  -0.356039
224.651  -23.85  476.863  -0.891151  0.0624122  -0.449394
225.274  -23.7755  476.151  -0.666524  0.256573  -0.69994
117.781  76.1385  444.88  -0.923936  -0.130799  -0.359492
130.2  -31.9863  436.876  -0.132671  0.936334  0.325081
131.201  -32.0131  436.877  -0.0538934  0.965486  0.254818
225.224  -21.8691  476.707  -0.491307  0.249443  -0.834503
131.532  -32.669  438.824  -0.473346  0.728231  0.495604
132.227  -32.9362  439.975  -0.442537  0.536507  0.718555
132.201  -32.7312  439.878  -0.299804  0.728037  0.616506
211.2  -31.056  441.875  -0.0880811  0.993195  0.0761909
210.2  -31.1686  441.875  -0.14125  0.986124  0.0872231
117.71  77.0636  446.513  -0.477785  -0.619489  0.622861
126.869  47.1926  419.826  0.866421  -0.199579  0.457693
131.2  -32.1936  437.873  -0.124618  0.943392  0.30738
210.851  -31.5061  438.64  0.236057  0.782248  -0.576512
116.206  82.1594  450.866  -0.912593  0.132058  -0.386956
132.2  -32.246  437.873  0.0181723  0.965065  0.261381
129.249  -31.9506  435.863  -0.731595  0.679513  0.0550574
128.199  -27.5957  417.872  0.0156333  0.975611  0.218948
216.201  -37.4187  482.874  0.277173  -0.960666  0.0172022
123.898  -28.2919  421.027  -0.450186  0.885117  -0.117905
128.279  26.9118  413.414  0.993316  0.105441  0.046954
218.2  -37.0562  481.875  0.145952  -0.982891  0.112354
224.2  -34.8516  463.826  0.164214  -0.982448  -0.0884807
224.2  -34.7725  462.875  0.163221  -0.98333  -0.0801263
125.26  -27.5056  417.61  -0.33581  0.92744  0.164582
217.193  -30.6718  444.879  -0.185802  0.974587  0.125131
216.197  -30.8219  444.877  -0.118322  0.989968  0.0772187
129.202  -27.5828  417.895  -0.058032  0.969711  0.237259
131.202  -30.8456  431.884  0.0349927  0.976239  0.213852
217.884  -30.3977  442.204  -0.0183486  0.990228  -0.138244
217.208  -30.4211  442.87  -0.169418  0.982892  0.0722553
217.201  -30.5374  443.875  -0.196893  0.972467  0.124666
125.166  32.1453  413.89  -0.694536  0.150986  -0.703436
125.201  54.1519  420.872  -0.14676  0.431156  -0.890262
122.805  58.1603  424.87  -0.943893  0.0666875  -0.32345
122.691  57.1523  424.864  -0.91282  0.094698  -0.397231
122.656  58.131  425.719  -0.910464  -0.0783724  0.406096
123.209  63.138  427.191  -0.579429  0.43103  -0.691719
122.2  57.149  425.875  -0.730836  -0.36586  0.576216
122.2  57.1495  425.875  -0.8302  0.295686  0.472587
217.201  -34.0046  443.874  0.152324  -0.980467  -0.124429
213.2  -34.447  442.875  0.14211  -0.982496  -0.120445
213.202  -34.3348  441.873  0.145673  -0.98227  -0.118001
214.199  -34.194  441.876  0.137246  -0.982434  -0.126436
224.749  -30.764  442.434  0.765933  0.385669  -0.514398
123.147  59.1441  424.884  -0.612444  0.368978  -0.699119
122.657  60.1366  425.891  -0.834111  0.241491  -0.495925
214.165  -33.4438  439.363  0.200538  -0.519868  -0.830374
213.718  -33.0125  439.072  0.244061  -0.217032  -0.945162
215.362  -32.8769  439.427  0.215063  -0.121187  -0.969052
212.905  -33.5258  439.092  0.229264  -0.556135  -0.798844
212.165  -33.0402  438.635  0.32877  -0.257127  -0.908733
126.204  54.1473  421.28  0.513445  0.422967  -0.746641
125.196  57.1471  422.489  -0.0787416  0.498966  -0.863037
223.869  -30.5197  442.302  0.0371994  0.776238  -0.629341
215.199  -34.1868  442.876  0.138039  -0.982181  -0.127536
215.198  -34.0546  441.878  0.14096  -0.980769  -0.134994
224.147  -29.2528  444.648  0.0257397  0.995077  -0.0957036
224.224  -29.4669  443.82  0.143115  0.916554  -0.373427
123.233  57.1495  423.869  -0.795566  0.216082  -0.566024
165.204  -36.9991  435.875  0.155091  -0.987769  0.0160861
165.197  -37.0313  434.868  0.141645  -0.989743  -0.0185915
217.2  -34.137  444.875  0.152504  -0.981103  -0.119078
216.81  -33.5364  440.344  0.168432  -0.92357  -0.344454
128.143  -17.8558  405.874  -0.800157  0.122552  -0.587138
127.186  -17.7565  406.787  -0.992317  0.0416259  -0.116511
127.23  -17.7084  406.813  -0.814187  0.185223  0.550265
131.212  -19.8492  401.81  -0.734395  0.0320922  -0.677963
182.19  -33.8579  433.9  0.587032  0.385911  -0.711664
183.204  -34.8441  434.244  0.603293  0.330637  -0.725752
183.173  -33.8705  434.703  0.593502  0.358752  -0.720453
216.201  -30.8978  445.874  -0.109457  0.990846  0.0790178
220.21  -30.4537  447.867  -0.224284  0.959589  0.169959
219.195  -30.6949  447.879  -0.19072  0.971577  0.14023
184.174  -33.8711  435.528  0.597599  0.38024  -0.705898
185.182  -33.8626  436.406  0.612746  0.36605  -0.700393
185.178  -34.8588  435.936  0.626871  0.306945  -0.716112
223.2  -31.4358  462.875  -0.0983847  0.967919  0.231202
219.224  -30.3029  445.86  -0.206101  0.970013  0.12883
214.199  -34.3235  442.876  0.129921  -0.983225  -0.128024
214.2  -34.4526  443.875  0.131662  -0.983178  -0.126596
148.216  -24.4457  399.93  0.189253  0.841809  0.50551
218.117  -34.0557  482.71  0.0580728  0.847772  0.527172
212.196  -34.3239  480.879  -0.143704  0.982598  0.117684
212.2  -34.4431  481.875  -0.146601  0.981856  0.120279
212.2  -34.2036  479.875  -0.136176  0.98432  0.112114
136.081  -24.2346  399.702  0.216275  0.734547  -0.643168
161.2  -29.4473  402.875  -0.0254901  -0.967547  -0.251403
161.2  -29.1916  401.876  -0.0203977  -0.967809  -0.250858
133.201  -25.8109  398.613  -0.223537  -0.191543  -0.95569
133.2  -24.8554  398.852  -0.119387  0.447512  -0.886273
161.2  -28.9282  400.873  -0.0199322  -0.966452  -0.256074
145.2  -24.0625  399.873  0.0248594  0.978488  0.204802
133.206  -23.5759  399.924  -0.0414749  0.653754  -0.75557
135.469  -24.0066  399.749  0.196875  0.696646  -0.689872
135.877  -24.7728  399.146  0.172779  0.664019  -0.727479
162.2  -29.7427  403.875  -0.0299893  -0.965729  -0.257816
162.2  -29.479  402.877  -0.0280335  -0.966535  -0.254997
163.201  -29.507  402.88  -0.0245584  -0.965512  -0.259198
218.202  -36.8838  478.874  0.142479  -0.987774  -0.0632607
131.076  -23.8813  400.903  -0.610756  0.571165  -0.548405
131.037  -22.9558  401.905  -0.733237  0.307153  -0.606647
132.215  -22.8559  400.715  -0.476425  0.364708  -0.800005
214.199  -37.3896  478.877  0.0976823  -0.987499  -0.123707
213.201  -37.6131  479.874  0.106856  -0.988317  -0.108683
213.201  -37.4899  478.873  0.0594525  -0.97558  -0.211445
215.198  -37.1557  477.873  0.0227524  -0.967896  -0.25032
224.189  -30.5312  453.882  -0.185321  0.977372  0.101984
122.472  -29.8975  417.173  -0.820647  -0.472598  -0.32123
126.49  51.9152  421.835  0.70125  -0.254377  0.665989
215.201  -34.1635  482.874  -0.077598  0.990891  0.110061
129.199  -28.8307  407.872  -0.0986962  -0.96998  -0.222257
128.199  -28.9549  408.873  -0.114335  -0.965311  -0.234739
126.622  54.126  422.869  0.754684  -0.0986455  0.64863
126.886  53.2439  422.404  0.930401  -0.102888  0.351807
122.524  59.1469  425.88  -0.998031  -0.0583051  0.0231312
122.646  59.1469  426.289  -0.642171  -0.387299  0.661526
122.598  60.0712  426.74  -0.872271  -0.30039  0.385888
126.336  53.1476  420.879  0.777191  0.310345  -0.547412
213.372  -31.475  439.232  0.166997  0.606838  -0.777084
212.213  -31.2387  439.288  0.0618036  0.843909  -0.532915
215.012  -30.5991  441.06  -0.0875248  0.996158  -0.00306499
121.99  64.1407  428.886  -0.84302  0.238693  -0.48202
123.21  64.1393  427.859  -0.53234  0.483315  -0.694996
225.185  -33.6216  450.882  0.193292  -0.976705  -0.0931968
215.205  -34.284  483.866  0.00309088  0.952317  0.305095
175.164  -28.6587  412.903  -0.214779  0.916752  0.336803
174.085  -28.6379  408.611  0.376376  0.765338  -0.52211
216.199  -33.9035  480.876  -0.0795261  0.993297  0.0838871
216.316  -34.516  483.614  0.327023  0.708622  0.625228
122.2  71.4467  434.894  -0.25674  0.683942  -0.682868
121.224  73.0195  436.888  -0.517545  0.619469  -0.590258
217.201  -33.815  480.874  -0.093328  0.992185  0.0828236
216.201  -33.9876  481.874  -0.0797198  0.992281  0.0949944
214.201  -34.0631  480.875  -0.098079  0.990946  0.0916828
141.721  -23.6772  396.077  -0.41917  0.905574  0.0650529
122.218  69.1744  432.458  -0.252171  0.704662  -0.663221
122.198  70.5611  433.904  -0.254133  0.708626  -0.658229
123.195  69.5159  432.873  0.403723  0.720007  -0.564445
122.17  68.1804  431.563  -0.376629  0.602831  -0.703381
121.083  67.2864  431.471  -0.593777  0.370206  -0.714406
121.221  68.1377  432.098  -0.606631  0.550305  -0.573727
126.209  -29.4912  412.879  -0.46084  -0.87182  -0.165999
127.209  -29.7537  412.882  -0.206432  -0.953809  -0.218252
124.419  -28.7422  414.95  -0.671195  0.630935  -0.389125
137.087  -24.1056  400.968  0.325858  0.941761  0.083082
138.118  -24.317  400.878  0.0921732  0.995114  0.0353755
135.478  -23.3176  400.688  0.433935  0.823498  -0.365447
128.2  -30.1544  413.875  -0.130475  -0.960887  -0.24428
127.201  -30.5528  415.878  -0.095902  -0.967881  -0.2324
223.2  -31.1299  461.875  -0.0340595  0.98045  0.1938
136.186  -24.681  403.848  0.933489  0.357872  -0.022931
135.719  -23.7855  402.918  0.913008  0.393277  -0.108392
138.203  -24.6906  402.884  0.0338089  0.97609  0.214721
139.192  -24.4761  401.847  0.0621916  0.967902  0.243512
139.132  -24.3223  400.801  -0.0524329  0.998471  0.0175026
171.811  -26.8404  401.842  0.800749  0.525789  -0.286962
171.833  -27.6446  401.073  0.826194  0.139881  -0.545744
163.169  -31.843  439.613  -0.651214  0.250553  -0.71634
171.193  -29.6125  402.885  0.126198  -0.94479  -0.3024
172.173  -26.7114  403.869  0.759624  0.650221  0.0135718
167.192  -33.1417  435.846  -0.193742  0.98014  -0.0423098
165.213  -33.4817  436.904  -0.0447694  0.986289  0.158842
164.246  -33.6349  437.952  -0.303981  0.910227  -0.281216
168.139  -33.0049  434.828  -0.238707  0.967908  -0.0785664
171.189  -29.253  401.889  0.22463  -0.906269  -0.358075
170.198  -29.0446  400.877  0.168364  -0.913392  -0.370632
166.2  -29.2759  401.873  -0.00769323  -0.963807  -0.266489
168.199  -28.463  398.864  0.217084  -0.792203  -0.570341
170.48  -28.705  400.238  0.531195  -0.167998  -0.830427
171.194  -28.8627  400.957  0.216562  -0.892631  -0.395363
167.217  -31.8589  436.82  -0.557337  0.253242  -0.790724
166.194  -33.1071  436.869  -0.533824  0.415891  -0.736252
168.196  -31.8462  436.131  -0.563852  0.243534  -0.789152
132.2  -27.5332  417.875  -0.0497535  0.983932  0.171473
165.2  -33.261  435.878  -0.024163  0.978084  0.206805
169.218  -28.9137  435.999  -0.194943  0.623179  -0.757394
170.216  -29.8569  434.978  -0.218025  0.539533  -0.813246
169.206  -29.891  435.185  -0.450445  0.310025  -0.837248
168.22  -29.8521  436.02  -0.655362  -0.0218766  -0.754999
169.671  -30.8462  434.901  -0.642878  -0.0987091  -0.759581
156.2  -37.6605  441.873  -0.0130624  -0.994974  -0.0992799
172.536  -27.862  405.875  0.90311  0.419465  0.0918755
167.201  -28.4911  398.885  -0.0162911  -0.964705  -0.262829
169.202  -28.8024  399.881  0.0544659  -0.946512  -0.318038
168.2  -28.776  399.878  -0.0248328  -0.966395  -0.25586
155.199  -37.5536  440.872  -0.0272692  -0.996316  -0.0813099
168.637  -28.4245  399.113  0.500117  0.447875  -0.741142
168.513  -28.4946  398.984  0.512963  0.289895  -0.807979
166.241  -28.0169  397.749  0.491224  0.405307  -0.770989
169.201  -29.0742  400.882  -0.0256103  -0.966317  -0.256077
170.201  -29.3582  401.881  -0.00634848  -0.96539  -0.260735
211.198  -34.7055  482.877  -0.107887  0.988102  0.109612
212.199  -34.6894  483.876  -0.12803  0.985792  0.108733
212.198  -34.7923  484.877  -0.115872  0.98829  0.0992793
212.2  -34.8894  485.875  -0.0297313  0.987247  0.156397
214.203  -34.1537  481.872  -0.098079  0.990819  0.0930468
158.347  -24.3839  398.466  0.165963  0.985479  -0.0358924
156.2  -24.8823  399.882  0.01588  0.942013  0.3352
156.196  -24.3293  398.879  -0.103867  0.942073  0.31892
225.937  -32.8304  447.874  0.832941  -0.547853  0.0778834
168.2  -27.6369  408.877  -0.00821272  0.949237  0.314455
225.182  -32.9879  445.88  0.357571  -0.927716  -0.107175
138.855  -24.4144  399.757  -0.0685102  0.988794  -0.132641
225.195  -32.8544  444.874  0.407609  -0.891487  -0.197751
166.2  -28.7343  399.872  -0.0159512  -0.967232  -0.253391
167.2  -29.0118  400.87  -0.0194576  -0.966773  -0.254896
168.2  -29.5643  402.875  -0.0124131  -0.966049  -0.25806
227.235  -18.8492  479.858  0.828655  -0.0805849  0.553928
226.748  -16.8508  480.87  0.8298  -0.0952072  0.549879
140  -24.2779  399.633  -0.158483  0.985326  -0.0633726
144.208  -24.6149  400.88  0.169433  0.897413  0.40736
143.193  -24.7358  401.873  0.108957  0.957116  0.268434
209.537  -31.391  438.014  0.293367  0.873085  -0.389433
225.009  -20.8724  482.201  0.273111  -0.29599  0.915314
225.254  -21.8584  481.701  0.387309  -0.300072  0.87175
225.604  -20.8462  481.861  0.682605  -0.184492  0.707116
223.2  -30.8889  455.875  -0.132352  0.988464  0.0736377
223.2  -30.927  456.875  -0.095583  0.994824  0.0344881
142.199  -24.1733  400.852  -0.0392573  0.982271  0.183311
142.2  -24.6957  401.878  0.0424673  0.948232  0.314727
180.488  -36.5774  437.965  -0.488935  -0.780507  0.389553
141.2  -24.9463  403.875  0.0504636  0.993669  0.100377
140.2  -24.9007  403.876  0.0268851  0.995704  0.0886076
223.2  -30.9583  457.875  -0.0921906  0.994745  0.0445279
223.191  -30.6114  452.882  -0.177575  0.976571  0.121555
223.195  -30.7119  453.878  -0.167582  0.981608  0.0914398
183.2  -37.0547  439.876  0.0280452  -0.992825  -0.116244
182.204  -37.07  439.88  -0.199046  -0.97818  -0.0595391
182.2  -36.9652  438.876  -0.0366068  -0.996032  -0.0811168
126.205  37.1514  414.485  0.212445  0.265197  -0.940499
185.223  -35.8272  435.697  0.577497  -0.413478  -0.703942
185.204  -36.6997  436.875  0.356866  -0.800144  -0.482097
184.203  -35.8487  434.919  0.557673  -0.362844  -0.746556
124.593  33.1467  414.884  -0.821989  0.108379  -0.559096
182.196  -36.6145  435.876  -0.0673274  -0.997505  -0.0212241
226.368  -14.848  481.857  0.823802  -0.119242  0.554194
226.177  -15.8601  481.92  0.807668  -0.117613  0.577788
127.456  35.1546  414.809  0.869921  0.205718  -0.448239
127.683  34.1428  414.883  0.977266  0.171782  -0.124263
224.197  -30.813  456.877  -0.138699  0.988099  0.0665072
125.278  64.1517  428.872  0.976974  0.211794  -0.0257851
125.446  63.1428  427.879  0.954124  0.291409  -0.068765
125.193  62.8244  426.87  0.766275  0.500485  -0.402911
125.192  34.1472  414.296  -0.720424  0.152398  -0.676582
126.172  33.146  413.401  -0.292488  0.24057  -0.925514
125.201  33.1456  414.063  -0.668217  0.154494  -0.727748
125.1  36.1534  414.854  -0.700151  0.159769  -0.69589
182.2  -36.8448  437.876  0.0342523  -0.9916  -0.124728
182.201  -36.7171  436.873  0.0263457  -0.992088  -0.122752
225.021  -17.8661  482.928  0.657926  -0.0934895  0.747257
225.269  -16.8382  482.826  0.724457  -0.144687  0.673964
166.198  -28.1885  397.888  0.0437079  -0.926425  -0.373934
184.201  -36.7836  436.876  -0.0587944  -0.998258  -0.00483482
183.216  -36.7239  435.857  0.0258617  -0.990762  -0.13312
123.825  32.1474  415.88  -0.913524  0.108292  -0.392106
123.712  32.9178  416.598  -0.94821  0.100754  0.301243
123.243  67.8158  430.868  0.374522  0.717234  -0.58763
123.211  68.6827  431.884  0.274855  0.736855  -0.617656
165.201  -28.1831  397.885  -0.0164826  -0.960826  -0.276663
164.2  -27.8581  396.883  -0.000900891  -0.937911  -0.346875
169.62  -28.353  399.755  0.453164  0.269113  -0.849836
168.351  -28.0654  399.238  0.423372  0.629993  -0.651049
168.833  -27.9708  399.575  0.39332  0.484855  -0.781163
223.197  -30.0743  448.876  -0.189278  0.981701  0.0208903
125.267  62.9886  428.677  0.761132  -0.118688  0.637645
125.819  62.152  427.873  0.975934  0.190517  0.106094
221.206  -30.4247  448.87  -0.19162  0.967005  0.167878
124.719  34.1408  414.91  -0.798096  0.128899  -0.588581
225.209  -29.7226  446.875  0.346587  0.931278  0.112244
224.517  -29.3779  445.625  0.170341  0.979926  0.103585
224.757  -19.7393  482.69  0.122312  -0.365866  0.922595
225.659  -19.8515  481.873  0.743435  -0.110563  0.659606
225.143  -18.8008  482.816  0.688501  -0.130424  0.713411
123.851  34.3015  416.642  -0.9919  -0.0445469  0.118955
124.199  35.1476  415.879  -0.839889  0.0953813  -0.534312
124.068  34.1487  415.874  -0.901618  0.117218  -0.416348
152.204  -34.8539  438.081  -0.0342537  0.3526  -0.935147
151.199  -34.8369  438.145  -0.0462371  0.166605  -0.984939
151.201  -33.6769  438.873  -0.0164106  0.534149  -0.845231
221.468  -30.0591  445.122  -0.124269  0.980825  0.150132
215.204  -37.4976  481.874  0.139654  -0.988495  -0.0580883
223.035  20.1473  490.893  0.684889  -0.0519684  0.726792
224.023  18.1551  489.829  0.753017  -0.0491726  0.656161
224.147  19.1564  489.818  0.904582  0.0397194  0.424444
186.2  -35.8295  436.535  0.654061  -0.140183  -0.743339
188.195  -34.8521  438.617  0.648153  0.270929  -0.711684
123.939  33.1474  415.88  -0.903282  0.107081  -0.415469
221.201  -30.1328  445.875  -0.0758427  0.995874  0.0498317
215.195  -37.6655  483.879  0.20764  -0.976715  -0.0539807
214.198  -37.78  483.876  0.0976906  -0.992552  -0.0727792
214.202  -37.6991  482.874  0.123435  -0.989916  -0.0695024
127.583  32.1449  413.883  0.840492  0.218489  -0.495818
126.186  34.1447  413.67  0.415876  0.230677  -0.879679
127.248  38.1408  415.89  0.992549  0.113379  -0.0446188
127.428  37.1482  415.875  0.993803  0.100632  0.0472119
186.192  -36.8568  437.885  0.223477  -0.933079  -0.281818
185.201  -36.8334  437.877  -0.02773  -0.999323  -0.0241859
215.203  -37.5678  482.873  0.139011  -0.986996  -0.0807105
159.201  -37.5132  438.88  -0.00128383  -0.997751  -0.0670118
160.2  -37.3918  437.875  -0.0412684  -0.984759  -0.16896
161.201  -37.4234  437.877  0.00945045  -0.995979  -0.0890872
222.079  21.1476  491.895  0.637099  -0.0299138  0.770201
223.129  21.1487  490.883  0.744273  0.00286118  0.667869
221.21  32.149  493.442  0.697681  0.0197299  0.716136
220.751  33.1475  493.854  0.699331  0.0352906  0.713927
220.168  33.1469  494.423  0.60307  -0.0140419  0.797564
128.339  30.155  414.908  0.61252  0.147487  0.776574
128.11  33.2  415.87  0.306861  -0.0872261  0.947749
127.912  32.1257  415.427  0.889849  -0.058393  0.452503
128.169  33.2148  415.82  0.959449  0.182785  -0.214587
213.2  -34.7752  485.875  -0.0860926  0.947427  0.308171
214.204  -34.5223  484.871  0.0520892  0.988597  0.141289
220.108  30.208  494.263  0.0521158  -0.119953  0.991411
220.789  31.1479  493.872  0.695905  -0.019745  0.717862
220.181  31.1479  494.51  0.519035  -0.0763051  0.851341
122.178  67.1813  430.772  -0.564382  0.377389  -0.734201
121.471  66.8582  431.149  -0.88074  -0.28874  -0.375403
125.208  61.8351  425.868  0.616728  0.541952  -0.570906
124.185  64.1529  427.417  0.176238  0.666471  -0.724401
124.212  65.6275  428.859  0.601276  0.610614  -0.515381
212.999  -35.2225  486.777  0.2165  0.758022  0.615248
214.136  -35.091  486.345  0.266719  0.645002  0.716123
214.773  -35.0148  485.898  0.56825  0.560383  0.602546
215.035  -34.6128  484.55  0.292129  0.876897  0.381724
214.199  -34.6703  485.876  0.137489  0.87582  0.46264
123.192  67.1575  430.259  -0.2107  0.660334  -0.720808
123.19  66.1606  429.353  -0.445597  0.542898  -0.711833
123.2  65.1467  428.582  -0.534968  0.498072  -0.682447
121.184  68.7487  432.855  -0.53124  0.582614  -0.615097
220.942  -32.4428  440.746  0.220454  -0.156821  -0.962708
121.029  67.7859  432.12  -0.66523  -0.622083  0.412895
121.194  70.1644  434.204  -0.417089  0.610775  -0.673046
120.698  69.5062  433.897  -0.983108  0.15353  -0.0996375
214.202  -34.0559  440.873  0.154005  -0.976822  -0.148665
215.202  -33.9078  440.873  0.143392  -0.972785  -0.182012
128.064  31.1537  414.859  0.98946  0.109879  -0.0943123
120.677  70.2341  434.651  -0.645089  -0.665757  0.375004
126.204  41.1465  415.716  -0.0782889  0.298538  -0.951181
126.207  42.1584  416.066  0.349669  0.306028  -0.885482
126.778  40.1497  415.868  0.661835  0.244817  -0.708547
128.103  31.0789  415.291  0.965213  0.217138  -0.145656
184.701  -29.8142  446.839  0.819515  0.571562  0.0413616
184.445  -29.8483  447.879  0.907213  0.345373  0.240171
182.608  -31.852  453.874  0.891003  0.154876  0.426764
184.924  -31.8511  447.867  0.939059  0.142712  0.312731
184.427  -30.8593  448.864  0.937344  0.217389  0.272267
127.208  35.985  416.237  0.693823  -0.147698  0.704837
127.516  34.9519  415.84  0.867315  0.0408799  0.496079
184.206  -36.5246  435.869  0.28268  -0.85637  -0.432113
201.2  -31.3428  434.865  -0.112711  0.975786  -0.187453
200.206  -31.8782  434.075  -0.14717  0.786653  -0.599599
200.204  -31.4607  434.88  -0.121999  0.970765  -0.206715
176.203  -32.4633  432.873  -0.0538342  0.983043  0.175298
225.186  -33.2072  447.879  0.337732  -0.93456  -0.111955
156.211  -33.6095  438.903  -0.0119312  0.99865  -0.0505599
158.199  -33.7094  437.857  -0.148637  0.769984  -0.62051
157.208  -33.8413  437.918  -0.132687  0.815264  -0.563683
161.201  -33.8325  438.88  0.0373094  0.988913  0.143734
162.2  -33.804  438.875  -0.0339228  0.995106  0.0928115
163.199  -33.6679  437.875  -0.0205235  0.990797  0.133794
206.203  -35.2698  482.872  -0.118278  0.984821  0.127034
205.197  -35.524  483.878  -0.117929  0.985072  0.1254
206.197  -35.3951  483.878  -0.13061  0.984679  0.115538
227.209  -30.8428  451.191  0.358717  0.35604  -0.862878
205.19  65.9283  502.877  0.645903  0.746341  -0.160575
206.199  64.8242  501.872  0.622235  0.740273  -0.254597
206.213  58.1831  497.954  -0.0494616  0.63315  -0.772447
206.277  58.1402  497.934  -0.453878  -0.467681  -0.758465
206.234  58.1588  497.976  -0.552071  -0.833768  0.00695911
127.62  33.9991  415.723  0.79057  0.146864  0.5945
209.199  59.1451  497.88  -0.19367  0.312937  -0.929818
206.194  63.1404  499.939  0.0961922  0.549199  -0.830137
156.201  -33.7072  439.876  0.0361514  0.985031  0.168543
155.199  -33.6303  439.873  0.0776886  0.978099  0.1931
153.205  -33.7449  438.867  -0.0371381  0.826894  -0.561131
153.216  -34.7625  438.075  -0.129295  0.225489  -0.965628
180.201  -36.575  463.874  -0.114584  0.988806  0.095567
182.197  -36.1918  462.877  -0.162624  0.979627  0.117834
181.195  -36.35  462.88  -0.136151  0.983276  0.12096
182.192  -36.3144  463.879  -0.168983  0.980159  0.103603
179.201  -36.9044  466.874  -0.159373  0.984162  0.0776285
180.2  -36.8236  466.875  -0.0815193  0.993356  0.0812361
180.201  -36.7396  465.874  -0.0923175  0.99246  0.0806283
211.2  -34.5012  440.876  0.128807  -0.982487  -0.134643
211.198  -34.3654  439.877  0.151428  -0.967853  -0.200824
212.201  -34.3621  440.875  0.145216  -0.980455  -0.132741
217.123  -32.6897  439.789  0.219321  0.042723  -0.974717
181.394  -34.8292  457.911  0.761108  0.388166  0.519655
180.221  -34.8636  459.249  0.391772  0.482343  0.783492
180.228  -35.8819  459.911  0.290376  0.783346  0.549591
209.604  -34.8516  441.875  0.141466  -0.980923  -0.133328
208.2  -34.8945  440.875  0.119426  -0.984197  -0.130746
209.197  -34.7633  440.878  0.128878  -0.982567  -0.133984
213.132  -33.9188  439.585  0.18616  -0.837649  -0.513506
213.943  -33.9671  440.081  0.171354  -0.948409  -0.266753
214.606  -33.6873  439.703  0.180768  -0.787241  -0.589555
212.2  -34.6216  442.875  0.164325  -0.977846  -0.129669
212.2  -34.4891  441.875  0.157288  -0.979864  -0.122995
134.2  -25.9287  409.875  0.00603835  0.993805  0.110978
125.365  -30.0699  428.328  -0.466819  0.846664  0.255423
128.197  -26.7403  413.875  -0.0675065  0.979099  0.191853
226.53  -30.8257  445.884  0.96159  0.271629  -0.0395181
210.585  -33.3743  437.991  0.495026  -0.414622  -0.763569
211.897  -33.7914  438.994  0.270163  -0.689287  -0.672232
133.2  -26.6553  412.875  0.0694193  0.955971  0.285133
213.196  -34.2092  440.879  0.142717  -0.98228  -0.121485
213.182  -34.1418  440.235  0.159609  -0.965031  -0.207943
212.2  -37.4548  478.875  -0.0582712  -0.901027  -0.429831
214.2  -37.0981  477.875  -0.0739636  -0.88311  -0.463299
226.568  -31.8766  444.87  0.924664  -0.240922  -0.294876
124.335  36.1451  415.89  -0.821324  0.114914  -0.558767
124.463  37.1421  415.903  -0.844597  0.154484  -0.512632
211.2  -37.834  479.875  0.0533989  -0.976937  -0.206741
212.199  -37.727  479.877  0.115966  -0.98702  -0.111099
216.2  -36.8672  476.875  -0.0780421  -0.934119  -0.348327
226.463  -30.8646  446.87  0.96059  0.262519  0.0913828
166.2  -28.4725  398.87  -0.015628  -0.965598  -0.259569
226.208  -31.8672  448.897  0.969417  -0.223885  0.100533
226.051  -31.9505  450.014  0.969483  0.0723685  -0.234235
225.182  -30.0126  443.918  0.65232  0.631609  -0.418985
224.67  -29.8799  443.494  0.581087  0.690007  -0.431541
130.2  -30.3352  429.891  0.0188656  0.964723  0.262589
223.728  -29.3086  444.72  -0.280937  0.958445  -0.0495772
126.169  29.1516  412.394  -0.646993  0.184876  -0.739744
163.2  -28.9644  400.873  -0.0143202  -0.965151  -0.2613
164.2  -29.2517  401.873  -0.0158815  -0.964327  -0.264238
163.2  -29.7791  403.875  -0.0176245  -0.966001  -0.257937
161.2  -28.663  399.88  -0.0168277  -0.965746  -0.258944
161.2  -28.3925  398.869  -0.00701749  -0.966703  -0.255806
124.913  35.1474  414.88  -0.796577  0.134019  -0.589494
229.126  -30.8468  451.962  0.456354  0.293142  -0.840124
228.186  -30.8666  451.574  0.347852  0.36641  -0.862985
163.2  -28.6939  399.877  -0.0168767  -0.964474  -0.263638
160.2  -29.1729  401.875  -0.0219783  -0.966806  -0.254566
131.179  -7.84863  403.654  0.193942  0.195993  -0.961235
159.203  -37.3392  437.885  -0.0970934  -0.955803  -0.277512
158.199  -37.4656  438.872  -0.0598953  -0.982296  -0.1775
158.2  -37.2363  437.874  -0.0822085  -0.958453  -0.273147
198.2  -31.8675  436.875  -0.0593794  0.98091  0.185177
197.008  -31.9778  437.177  -0.0607101  0.969925  0.235711
198.2  -32.0652  437.874  -0.0697907  0.980061  0.186036
132.62  -11.8419  404.305  0.997922  -0.0636464  -0.0100866
188.201  -34.5186  449.871  -0.102403  0.988753  0.108998
163.199  -35.8936  433.758  -0.497646  -0.517753  -0.695903
163.182  -36.8422  434.852  -0.217214  -0.866119  -0.450174
162.213  -36.4213  434.897  -0.427398  -0.587664  -0.687009
165.2  -32.9026  432.875  -0.0964686  0.99069  0.0960524
161.205  -33.6411  437.884  0.0634525  0.98024  0.187357
160.19  -33.6872  438.854  0.0500223  0.984131  0.170245
183.672  -33.8558  451.875  0.904172  0.281501  0.321294
183.311  -33.8521  452.879  0.897271  0.203749  0.391652
184.181  -34.8949  451.863  0.820041  0.460759  0.339462
132.852  -6.7716  406.232  0.963023  0.0376055  -0.266783
132.855  -7.98183  405.829  0.972355  0.143102  -0.184521
132.072  -6.8225  404.828  0.819762  0.205315  -0.534636
126.313  -1.84838  408.827  -0.85565  0.039301  -0.51606
127.004  -0.851992  407.89  -0.812923  0.0236952  -0.581888
126.979  -1.85191  407.884  -0.812871  0.0231132  -0.581986
131.239  -1.83655  405.679  0.673407  0.254049  -0.694249
131.828  -2.84271  405.843  0.755412  0.303462  -0.580744
172.198  -29.421  416.86  0.0872368  0.917237  0.388673
173.201  -29.7799  417.88  0.0168334  0.983124  0.182166
129.122  -5.8522  404.891  -0.756587  -0.00545702  -0.653871
128.32  -5.85121  405.868  -0.78455  0.0106633  -0.619974
129.102  -4.84552  404.874  -0.775682  0.0159032  -0.630923
173.199  -30.2004  420.854  0.0198736  0.975579  0.218749
128.733  -23.85  404.834  -0.8187  0.296087  -0.491998
129.19  -24.0058  403.868  -0.592768  0.740653  -0.316322
128.18  -24.3917  404.865  -0.618466  0.741614  -0.259824
127.537  -5.85241  406.895  -0.807981  0.0202881  -0.588859
126.624  -25.2041  406.565  -0.634038  0.766082  0.105423
127.498  -24.602  406.76  -0.678408  0.702339  0.2156
127.221  -24.7708  405.872  -0.539282  0.837833  -0.0849147
216.199  -33.7618  440.876  0.150508  -0.973071  -0.174585
163.578  -27.6185  396.453  0.155252  -0.705405  -0.691593
165.931  -28.0721  397.544  0.403897  -0.323571  -0.855669
171.2  -30.1201  420.875  0.0528834  0.973303  0.223347
172.2  -30.1943  420.859  0.028768  0.953423  0.300261
172.2  -30.0211  419.87  0.0257149  0.989992  0.138762
120.21  74.0347  438.885  -0.62871  0.487565  -0.605809
165.2  -28.4572  398.875  -0.0152268  -0.965554  -0.259758
174.2  -29.951  418.875  0.0260498  0.991903  0.124301
128.756  -22.8513  404.852  -0.860397  0.018142  -0.509301
129.442  -21.8518  403.886  -0.809415  0.0147169  -0.587052
129.431  -22.8482  403.86  -0.809237  0.055271  -0.584877
128.298  -23.0597  405.795  -0.957541  0.142669  -0.25052
128.08  -23.8598  405.896  -0.854772  0.414189  -0.31275
208.202  -38.5247  482.875  0.14011  -0.989828  -0.0246879
209.201  -38.4084  483.875  0.14182  -0.988974  -0.0426381
208.202  -38.5506  483.875  0.138266  -0.989554  -0.0408162
164.175  -26.529  404.85  0.0436059  0.928481  0.368811
167.775  -26.2334  401.219  0.0277912  0.973971  -0.224963
128.19  -24.6867  403.865  -0.665913  0.623975  -0.40892
127.425  -25.7846  403.856  -0.782656  0.266451  -0.562542
126.457  -25.9063  405.255  -0.77438  0.418813  -0.474269
127.204  -24.9883  404.871  -0.647015  0.719992  -0.250963
126.206  -25.5823  406.223  -0.756054  0.636847  -0.151021
226.361  -19.8568  480.922  0.801938  -0.0669705  0.593642
123.198  48.1517  420.848  -0.858857  -0.0303477  -0.511316
123.487  46.8843  420.56  -0.669302  -0.358707  0.650664
122.36  48.224  421.739  -0.845194  -0.533577  0.030715
123.194  54.155  422.857  -0.86428  0.165803  -0.474899
122.846  72.4112  438.765  0.761216  -0.544685  0.351948
122.991  72.0811  437.856  0.951604  -0.217333  0.217291
123.006  73.1534  438.87  0.994853  0.101108  -0.00672257
128.767  30.0933  414.725  0.902757  -0.160029  0.399275
128.631  29.0841  414.595  0.971077  -0.0710118  0.227961
128.37  28.0964  414.747  0.528739  -0.344957  0.775526
128.025  27.3641  414.577  0.625523  -0.398553  0.670728
128.206  27.6377  414.366  0.970745  -0.208164  0.119676
130.198  1.15631  405.72  0.479174  0.237924  -0.844857
130.745  3.13161  406.929  0.689598  0.254929  -0.677839
131.045  2.13779  406.906  0.806451  0.172973  -0.565436
132.619  -3.17442  407.482  0.907154  0.0418321  -0.418714
132.754  -3.48641  407.726  -0.0150065  0.214114  0.976693
132.755  -3.49258  407.727  0.817155  -0.54522  -0.187062
173.2  -29.9232  418.873  0.0260102  0.991659  0.126236
130.202  -1.85531  404.816  0.169086  0.231439  -0.958043
130.226  -2.8505  404.576  0.583975  0.2224  -0.780712
210.2  -34.9856  484.875  -0.090263  0.992672  0.0803404
210.202  -35.0675  485.873  -0.0871608  0.992125  0.0899461
131.891  -5.86184  404.907  0.756804  0.202883  -0.621359
131.196  -5.86056  404.304  0.469999  0.299556  -0.830281
131.199  -4.84674  404.69  0.514368  0.245462  -0.82169
131.193  -3.85443  405.027  0.611729  0.251136  -0.750145
131.22  -2.84394  405.375  0.608662  0.23383  -0.758192
167.2  -27.8633  409.875  -0.0644116  0.982266  0.17608
168.2  -27.9202  410.875  -0.000852519  0.989744  0.142853
168.2  -27.799  409.883  -0.0216857  0.987509  0.156065
211.201  -37.9648  480.876  0.127043  -0.98586  -0.109275
147.358  -37.4839  444.427  -0.293438  -0.797209  0.52759
146.625  -37.4154  443.966  -0.473557  -0.754836  0.453836
147.201  -37.6831  443.877  -0.165912  -0.983314  0.0746069
210.199  -38.072  480.878  0.0732756  -0.979834  -0.185891
209.199  -38.3575  481.874  0.140728  -0.985028  -0.0995765
209.206  -38.144  480.857  0.0693272  -0.953898  -0.292014
125.189  37.1471  415.015  -0.499732  0.193105  -0.844381
207.198  -38.4905  480.87  0.135359  -0.953295  -0.270014
208.199  -38.3231  480.852  0.155664  -0.913522  -0.375827
