ply
format ascii 1.0
comment Exported by Geomagic
element vertex 705
property float x
property float y
property float z
property float nx
property float ny
property float nz
property uchar red
property uchar green
property uchar blue
end_header
-0.005427 -0.028291 0.020461 -0.990517 0.119739 -0.067358 181 159 0
-0.004626 -0.017675 0.012735 -0.962245 0.181613 0.202736 196 167 6
-0.013170 0.053795 -0.026781 0.941210 0.313721 -0.125311 219 180 17
-0.001226 -0.036380 0.022033 0.986658 -0.149067 0.065450 53 125 57
-0.004667 -0.021010 0.014971 -0.984153 0.115790 0.134294 190 166 3
-0.004163 -0.006947 0.005238 -0.995731 -0.091953 -0.008028 202 164 1
-0.000298 -0.031664 0.018088 0.989941 -0.119210 0.076197 61 126 56
-0.004812 -0.023473 0.016727 -0.994137 0.105970 0.021504 190 163 0
-0.006745 -0.034552 0.025770 -0.973040 0.192912 -0.126407 184 159 1
0.000403 -0.001760 -0.002279 0.977547 -0.210455 -0.010528 222 187 0
0.000016 -0.003305 -0.000914 0.960365 -0.278552 -0.010363 228 192 0
-0.004644 -0.020182 0.014401 -0.983678 0.119605 0.134433 195 168 0
-0.000021 -0.030083 0.016793 0.991424 -0.111277 0.068527 52 127 42
-0.039518 0.061777 -0.008444 -0.066626 0.948518 0.309635 223 195 0
-0.001390 -0.037164 0.022690 0.986006 -0.153714 0.064534 50 125 44
0.000110 -0.029290 0.016148 0.991763 -0.108016 0.068833 53 127 42
-0.000729 -0.008923 0.003457 0.999442 -0.012889 0.030804 215 178 0
-0.038485 0.061855 -0.009426 -0.044450 0.979720 -0.195380 220 194 1
-0.000204 -0.004071 -0.000219 0.959657 -0.281153 -0.003450 223 189 0
-0.000936 -0.011364 0.005251 0.992754 -0.111709 -0.044261 206 174 4
-0.005931 -0.031477 0.023000 -0.985046 0.108632 -0.133729 176 158 0
-0.035938 0.058951 -0.009795 0.038910 -0.994123 0.101022 184 159 1
-0.003397 -0.001343 0.000841 -0.935557 0.228962 0.268901 237 206 5
-0.004649 -0.018509 0.013290 -0.966392 0.143979 0.212972 197 166 3
-0.004692 -0.021843 0.015530 -0.986818 0.116053 0.112795 193 167 1
-0.016643 0.054936 -0.024438 -0.969918 -0.233312 0.069452 189 157 0
-0.005276 -0.027508 0.019791 -0.990940 0.110431 -0.076432 185 161 0
-0.000760 -0.009752 0.004025 0.997213 -0.070139 0.025444 207 174 0
-0.004421 -0.013561 0.009818 -0.969206 0.175352 0.172891 191 170 3
-0.000849 -0.010557 0.004633 0.990454 -0.137733 0.005504 207 149 11
-0.005147 -0.026717 0.019142 -0.993217 0.107842 -0.043477 186 161 0
-0.038282 0.059050 -0.007773 0.051493 -0.987416 0.149523 188 161 0
0.000452 -0.026898 0.014242 0.996413 -0.067329 0.051255 35 124 45
-0.005186 -0.040953 0.028571 -0.905826 -0.156723 0.393595 111 126 8
-0.002067 -0.041963 0.026441 0.996192 -0.087168 -0.001511 33 129 26
-0.012811 0.052818 -0.026490 0.949334 0.293924 -0.111237 213 173 26
-0.005638 -0.029904 0.021679 -0.995249 0.072021 -0.065525 157 142 4
-0.000395 0.004340 -0.005621 0.947797 0.299695 -0.108920 199 163 0
-0.014580 0.057584 -0.028057 0.941069 0.313855 -0.126034 221 187 10
-0.002248 -0.042743 0.027107 0.973444 -0.223188 0.050919 39 125 38
-0.036145 0.061807 -0.011526 -0.051801 0.995913 0.073981 168 151 15
-0.037697 0.061692 -0.010060 -0.059158 0.967403 -0.246235 217 190 0
-0.004325 -0.011923 0.008621 -0.976886 0.178268 0.117954 196 164 0
-0.000770 0.005289 -0.005932 0.949547 0.300821 -0.088698 211 157 29
-0.004025 -0.004509 0.003451 -0.981605 0.190370 0.014544 218 187 8
-0.003528 -0.002157 0.001453 -0.880067 0.428241 0.205161 234 207 9
-0.034358 0.058834 -0.011194 0.015701 -0.934519 0.355568 170 154 31
-0.013893 0.055686 -0.027456 0.944278 0.302923 -0.128749 223 193 0
-0.000061 0.003366 -0.005327 0.963504 0.254781 -0.082138 200 171 0
-0.015779 0.059630 -0.028419 0.410513 0.908923 0.073065 219 177 14
-0.040301 0.060940 -0.007338 -0.114158 0.623212 0.773676 250 228 0
-0.003128 0.002681 -0.002199 -0.943326 -0.317459 -0.096727 192 161 0
0.000313 0.000542 -0.003880 0.984491 0.002729 -0.175415 224 186 0
-0.005528 -0.040244 0.028255 -0.596089 -0.396281 0.698311 202 180 0
-0.039103 0.059131 -0.007306 -0.015958 -0.895916 0.443938 193 163 0
-0.004130 0.005496 -0.003253 -0.952336 -0.303771 -0.027923 182 148 0
-0.017229 0.056663 -0.025350 -0.912025 -0.392943 0.117499 188 156 0
0.000454 -0.000586 -0.003416 0.990906 0.035311 -0.129842 218 183 0
-0.039958 0.059584 -0.006972 -0.127228 -0.498463 0.857524 193 163 0
-0.003349 0.003428 -0.002868 -0.938507 -0.343092 -0.038635 185 148 0
-0.003079 -0.000009 -0.000859 -0.969743 0.154429 -0.189077 233 209 4
-0.015161 0.059233 -0.029161 0.912452 0.407031 -0.041920 214 146 69
-0.013010 0.050982 -0.025653 0.926873 -0.289136 0.239389 62 45 16
-0.004353 0.006222 -0.003962 -0.962975 -0.267871 0.030399 184 151 0
-0.041009 0.060505 -0.007141 -0.108611 0.420229 0.900895 207 172 6
-0.040934 0.060083 -0.007020 -0.132007 0.093972 0.986784 198 165 2
0.000133 0.001708 -0.005294 0.980392 -0.043483 -0.192204 230 197 71
-0.040293 0.061838 -0.008832 -0.043834 0.986352 0.158709 221 195 0
-0.003613 0.004124 -0.003642 -0.936337 -0.350662 0.017603 180 145 1
0.000020 0.002328 -0.005734 0.970082 0.062244 -0.234663 207 176 0
0.000099 0.001145 -0.005081 0.971509 -0.081520 -0.222542 230 197 71
-0.006043 -0.040244 0.027562 -0.545364 -0.716658 0.434718 204 182 5
0.000243 -0.000338 -0.004460 0.969791 0.085623 -0.228417 224 191 2
-0.001516 0.008324 -0.008619 0.994318 0.083589 -0.065918 206 177 0
-0.016075 0.052486 -0.024740 -0.961692 -0.264815 0.070865 188 163 0
-0.003323 -0.001153 -0.000767 -0.970100 0.181774 -0.160826 227 201 0
-0.003781 -0.002673 0.000645 -0.968771 0.242264 -0.052817 241 205 3
-0.004438 -0.011656 0.007162 -0.983416 0.165420 0.074368 194 165 3
-0.016335 0.053398 -0.025125 -0.969484 -0.234347 0.071992 189 159 0
-0.004966 0.008607 -0.005756 -0.992335 -0.121705 -0.021452 176 148 1
-0.005586 -0.029705 0.020084 -0.993282 0.109846 -0.036380 164 145 0
-0.004067 -0.004258 0.001925 -0.987212 0.153249 0.043907 225 190 0
-0.004760 0.007701 -0.005350 -0.976720 -0.212747 0.027513 180 147 0
-0.003963 -0.003457 0.001300 -0.983216 0.180095 0.029198 233 200 6
-0.039683 0.058942 -0.007875 0.048822 -0.983499 0.174200 189 160 0
-0.004158 -0.005068 0.002535 -0.997153 0.075164 0.006012 216 182 0
-0.004271 0.005867 -0.004580 -0.955270 -0.292444 0.044000 182 149 0
-0.004154 -0.005894 0.003075 -0.998361 -0.039406 -0.041499 206 173 2
-0.003503 -0.001928 -0.000130 -0.978887 0.200800 -0.038218 227 206 7
-0.004175 -0.010082 0.005854 -0.995724 0.091844 -0.009985 191 158 0
-0.002052 -0.040927 0.024310 0.993666 -0.097026 0.056676 44 121 40
-0.006310 -0.033655 0.023327 -0.977462 0.175984 -0.116607 180 161 2
-0.001744 -0.039352 0.022990 0.987991 -0.143687 0.056824 35 123 48
-0.013470 0.054110 -0.028190 0.939932 0.318657 -0.122415 220 188 13
-0.000922 -0.035440 0.019670 0.987117 -0.140833 0.075940 53 127 48
-0.000524 -0.005435 -0.000491 0.996720 -0.080597 -0.007285 205 172 0
-0.000170 -0.003881 -0.001836 0.958135 -0.285812 -0.016966 209 174 0
-0.004136 -0.006749 0.003610 -0.998625 -0.040994 -0.032671 199 160 1
-0.038122 0.058904 -0.009267 0.046816 -0.994330 0.095479 187 157 1
-0.004541 0.006782 -0.004959 -0.969337 -0.242764 0.038095 184 152 1
-0.004500 -0.012486 0.007722 -0.985432 0.167734 0.028100 196 169 1
-0.000384 -0.004647 -0.001140 0.962078 -0.272465 -0.012972 209 174 0
0.000114 -0.029923 0.015096 0.991371 -0.108449 0.073642 51 126 45
0.000421 -0.001562 -0.003900 0.984357 -0.151762 -0.089494 217 181 0
-0.004937 -0.024065 0.015754 -0.988985 0.121836 0.084053 192 171 0
-0.000293 -0.032301 0.017027 0.990391 -0.117280 0.073281 60 128 47
-0.014175 0.056011 -0.028823 0.944328 0.304186 -0.125361 221 191 0
-0.015764 0.051511 -0.024429 -0.948188 -0.310767 0.066069 193 170 2
-0.008156 -0.038069 0.027877 -0.961768 -0.237238 0.136818 197 166 0
-0.006819 -0.039849 0.027855 -0.276479 -0.816582 0.506708 215 192 0
-0.016571 0.054290 -0.025543 -0.970937 -0.228633 0.070765 189 158 0
0.000363 -0.028333 0.013816 0.994029 -0.088842 0.063350 54 129 39
-0.001420 -0.037789 0.021654 0.984931 -0.159568 0.066719 49 124 39
-0.006532 -0.034422 0.024013 -0.977335 0.183309 -0.105902 181 160 1
-0.005444 -0.028922 0.019407 -0.990202 0.130020 -0.050929 182 160 0
-0.004109 -0.007599 0.004137 -0.998457 -0.054541 -0.010505 195 157 1
-0.000678 -0.008735 0.001812 0.999538 -0.016865 0.025275 210 180 0
-0.000648 -0.007908 0.001239 0.999425 -0.019079 0.028031 214 183 0
-0.013827 0.055054 -0.028509 0.942499 0.311290 -0.121629 220 190 2
-0.001248 -0.037009 0.020983 0.986140 -0.149987 0.070939 53 127 44
-0.004893 -0.022408 0.014612 -0.980495 0.121649 0.154370 192 169 2
-0.035776 0.058800 -0.011312 -0.009779 -0.916083 0.400871 180 152 0
-0.004997 -0.024885 0.016340 -0.990771 0.113754 0.073711 194 167 0
-0.039888 0.061755 -0.009579 -0.049635 0.961347 -0.270829 221 195 0
-0.000612 -0.007083 0.000661 0.998968 -0.036595 0.026929 218 178 1
-0.005209 -0.027327 0.018140 -0.992362 0.123315 -0.003241 187 164 0
0.000047 -0.003117 -0.002549 0.958656 -0.284126 -0.015891 212 173 0
0.000245 -0.029133 0.014443 0.992810 -0.097704 0.069156 59 124 47
-0.004946 -0.019044 0.012434 -0.961850 0.129660 0.240900 192 173 0
-0.004906 -0.019894 0.012960 -0.967040 0.096366 0.235684 188 172 33
-0.002377 -0.043333 0.026164 0.970834 -0.239286 -0.014975 42 123 40
-0.034962 0.058296 -0.011714 0.039853 -0.870031 0.491384 147 142 103
-0.015762 0.051507 -0.024438 -0.924045 -0.378183 0.055854 193 170 2
0.000535 -0.026718 0.012588 0.996320 -0.060318 0.060908 43 120 48
-0.004944 -0.042483 0.027904 -0.975646 -0.061398 -0.210587 60 86 36
-0.000019 -0.030720 0.015726 0.991273 -0.111075 0.071002 65 125 42
-0.001004 0.005604 -0.007366 0.971368 0.214018 -0.103146 208 181 0
-0.004880 -0.021577 0.014047 -0.978169 0.125383 0.165721 191 172 3
-0.004875 0.009395 -0.006399 -0.999735 -0.019910 0.011526 173 155 8
-0.004962 -0.018201 0.011893 -0.952137 0.182665 0.245087 101 90 35
-0.015071 0.058812 -0.029879 0.981418 0.191344 0.014313 205 180 34
-0.037341 0.058873 -0.009962 0.043961 -0.994550 0.094540 185 156 1
-0.017683 0.057165 -0.026451 -0.881284 -0.447825 0.150967 195 159 0
-0.012934 0.050570 -0.026354 0.922820 -0.294715 0.248084 70 47 11
-0.004716 -0.014097 0.008964 -0.957975 0.202152 0.203517 75 66 3
-0.036758 0.061582 -0.012273 -0.063202 0.947422 -0.313685 168 151 15
-0.004861 -0.020746 0.013482 -0.975462 0.117314 0.186308 195 170 27
-0.001112 -0.011942 0.004311 0.985085 -0.170180 -0.025438 200 171 5
-0.005046 -0.025707 0.016923 -0.991984 0.111337 0.059759 194 165 2
-0.013095 0.053134 -0.027903 0.941256 0.315636 -0.120050 226 183 4
-0.000887 -0.011179 0.003606 0.990448 -0.133106 0.036002 200 171 5
-0.001879 0.010077 -0.009534 0.964233 0.264847 0.010483 143 92 20
-0.004690 -0.013268 0.008394 -0.971296 0.207425 0.116443 135 117 4
-0.005837 -0.042793 0.028908 -0.806492 0.591171 -0.009320 60 86 36
-0.000155 -0.031513 0.016370 0.991118 -0.113352 0.069548 55 129 43
-0.005112 -0.026523 0.017519 -0.992136 0.119828 0.036142 185 166 0
-0.000755 -0.034662 0.018985 0.987231 -0.138893 0.077997 52 126 47
-0.001590 -0.038571 0.022313 0.986464 -0.152996 0.058993 43 122 46
-0.005316 -0.028129 0.018760 -0.991610 0.127339 -0.022259 184 162 3
-0.000573 -0.006261 0.000076 0.999253 -0.038279 0.005433 211 151 10
-0.012472 0.051276 -0.027237 0.991857 -0.034035 0.122721 181 151 1
-0.001083 -0.036228 0.020312 0.986820 -0.144871 0.072104 50 127 44
-0.038904 0.058926 -0.008601 0.060023 -0.994077 0.090591 187 160 0
-0.037549 0.061730 -0.011666 -0.043079 0.988511 -0.144880 216 192 32
-0.008389 -0.037181 0.027485 -0.991386 0.060419 -0.116206 189 157 0
-0.000441 -0.033094 0.017662 0.988178 -0.133816 0.074818 54 130 48
0.000250 -0.002348 -0.003250 0.971525 -0.233413 -0.040693 212 178 0
-0.006748 -0.035190 0.024696 -0.975696 0.191765 -0.106041 182 159 0
-0.039098 0.061611 -0.010206 -0.033407 0.996175 -0.080739 216 193 0
-0.007837 -0.036719 0.026680 -0.805519 0.515668 -0.291931 186 158 1
-0.001220 0.006503 -0.007779 0.984939 0.158243 -0.069671 211 183 0
-0.004911 -0.023245 0.015162 -0.983100 0.115453 0.142079 193 167 0
-0.000705 -0.009570 0.002368 0.999431 -0.017406 0.028889 204 176 10
-0.004081 -0.008452 0.004654 -0.999982 0.001280 -0.005956 192 157 1
-0.036561 0.058841 -0.010659 0.039216 -0.994347 0.098673 184 155 0
-0.012742 0.052169 -0.027600 0.952684 0.289166 -0.093690 222 157 61
-0.000597 -0.033881 0.018313 0.988425 -0.137045 0.065068 62 128 47
-0.004108 -0.009281 0.005221 -0.998205 0.058186 -0.014198 190 160 0
-0.005091 -0.041570 0.027411 -0.849131 -0.524987 0.058019 111 126 8
-0.005663 -0.030532 0.020639 -0.996989 0.077429 -0.004238 104 86 43
-0.000789 -0.010380 0.002969 0.989414 -0.142314 0.028425 199 166 4
-0.001375 0.007387 -0.008234 0.989122 0.126799 -0.074562 211 183 14
-0.002229 -0.042549 0.025487 0.973214 -0.219348 -0.068850 47 119 39
-0.002782 0.001157 -0.002865 -0.992020 -0.109843 -0.061902 195 155 3
0.000466 -0.027541 0.013161 0.996957 -0.061352 0.048091 46 126 49
-0.002872 0.002020 -0.003361 -0.968880 -0.246471 -0.022864 185 146 2
-0.014516 0.056929 -0.029170 0.943603 0.305069 -0.128630 223 188 0
-0.006986 -0.035968 0.025395 -0.917163 0.354224 -0.182588 185 159 2
-0.016816 0.055181 -0.025958 -0.965866 -0.247185 0.077474 193 160 1
-0.004268 -0.010904 0.006416 -0.984157 0.177165 0.006771 196 158 3
-0.017107 0.056106 -0.026309 -0.923334 -0.367273 0.112102 188 158 0
-0.038329 0.061697 -0.010981 0.001667 0.996131 0.087865 218 192 0
-0.002955 -0.000460 -0.001656 -0.979806 0.117517 -0.161771 209 176 0
-0.006071 -0.032909 0.022552 -0.975193 0.180061 -0.128751 177 158 0
-0.005710 -0.031361 0.021204 -0.994526 0.104284 -0.006597 95 86 52
-0.001573 0.009120 -0.009223 0.990096 0.131591 -0.048941 192 168 12
-0.002794 0.000327 -0.002327 -0.992431 0.076649 -0.095956 200 164 0
-0.002112 -0.041757 0.024837 0.991664 -0.128428 -0.010499 39 122 37
-0.000304 0.003326 -0.006540 0.957700 0.154571 -0.242731 199 168 0
-0.001894 -0.040155 0.023584 0.988893 -0.134563 0.063117 41 122 36
-0.041420 0.061518 -0.008111 -0.044567 0.838339 0.543325 230 197 2
-0.007712 -0.039267 0.028200 -0.633621 -0.638684 0.436584 227 203 2
-0.000649 0.004417 -0.006973 0.956990 0.228425 -0.178867 202 165 0
-0.005832 -0.032160 0.021796 -0.985651 0.140873 -0.092984 167 150 0
-0.003900 0.004809 -0.004429 -0.938990 -0.339835 0.053018 179 146 0
-0.000078 0.001707 -0.006044 0.942208 -0.097704 -0.320466 217 187 19
-0.003114 0.002744 -0.004053 -0.944739 -0.325623 0.037918 185 144 2
-0.042028 0.060353 -0.007221 -0.103655 0.255206 0.961315 221 197 4
-0.014853 0.057686 -0.029836 0.966315 0.250818 -0.057668 216 160 54
-0.042270 0.060894 -0.007502 -0.044764 0.563680 0.824779 246 223 9
-0.004551 -0.042898 0.027159 -0.846744 -0.431104 -0.311727 41 109 3
-0.041581 0.059384 -0.007293 -0.108276 -0.472480 0.874665 193 166 0
-0.041138 0.059118 -0.007528 -0.029129 -0.842766 0.537492 189 162 0
-0.012912 0.050202 -0.026975 0.911127 -0.282485 0.300083 95 64 7
-0.004708 -0.042134 0.026531 -0.860609 -0.496700 -0.112433 116 113 0
-0.004562 -0.012055 0.006497 -0.966789 0.244478 0.074501 190 165 3
0.000227 -0.001318 -0.004915 0.972532 0.016387 -0.232189 216 180 3
-0.042121 0.061768 -0.008625 -0.041227 0.974281 0.221533 223 196 0
-0.004542 -0.012930 0.006984 -0.991269 0.112213 0.069240 195 177 60
-0.042339 0.059829 -0.007223 -0.099268 -0.158550 0.982348 201 172 1
-0.003957 -0.043312 0.026391 -0.841051 -0.519189 -0.151907 51 106 4
-0.000855 -0.010864 0.002173 0.985447 -0.168734 0.020559 197 159 7
-0.000202 0.000057 -0.005801 0.923732 -0.006641 -0.382982 223 190 0
-0.000443 0.002317 -0.007097 0.926005 -0.072042 -0.370573 206 175 0
-0.017498 0.056506 -0.027581 -0.897406 -0.409927 0.163159 190 157 2
-0.012307 0.050533 -0.028307 0.987789 0.028317 0.153201 207 152 25
-0.005802 -0.031936 0.020292 -0.994693 0.102814 0.003891 86 78 58
-0.040498 0.061518 -0.010306 -0.046982 0.998295 -0.034635 218 194 0
-0.002052 -0.041554 0.023270 0.989727 -0.132067 0.054760 38 126 37
-0.015542 0.050822 -0.025614 -0.921594 -0.368218 0.122795 187 160 0
-0.004218 -0.010696 0.004840 -0.992972 0.100805 -0.061999 187 165 2
-0.005721 -0.031130 0.019667 -0.995376 0.094747 -0.015836 117 101 32
-0.004139 -0.004860 0.000911 -0.995461 0.075255 -0.058257 208 178 0
-0.005781 -0.040964 0.026211 -0.472295 -0.823230 0.315009 194 171 1
-0.003519 -0.002571 -0.001169 -0.966454 0.196189 -0.165758 215 180 0
-0.000572 -0.006050 -0.001520 0.999378 -0.032141 -0.014503 212 173 0
-0.013747 0.054408 -0.029622 0.941391 0.317392 -0.114215 220 190 2
-0.000541 -0.005230 -0.002094 0.987130 -0.158678 -0.019856 199 166 0
-0.007863 -0.039651 0.027185 -0.921340 -0.294868 0.253350 215 192 0
-0.003738 -0.003335 -0.000484 -0.980004 0.156589 -0.122768 220 187 3
-0.040306 0.058825 -0.008743 0.057533 -0.995078 0.080684 185 159 0
-0.004102 -0.009910 0.004179 -0.999884 0.011483 -0.009994 192 162 0
-0.007417 -0.040101 0.027075 -0.307558 -0.831128 0.463287 211 187 0
-0.001781 -0.039979 0.021944 0.988870 -0.140238 0.049688 40 124 38
-0.001705 0.009397 -0.010715 0.994193 0.106065 -0.018140 189 147 38
-0.001624 0.008525 -0.010212 0.995970 0.060604 -0.066103 197 167 15
-0.015967 0.051787 -0.025915 -0.945770 -0.313591 0.084736 186 164 0
-0.005150 -0.025469 0.015382 -0.988153 0.119138 0.096742 194 172 0
-0.000361 -0.004458 -0.002778 0.961093 -0.275537 -0.019463 199 166 0
-0.007013 -0.036583 0.024384 -0.854889 0.455323 -0.248689 188 161 1
-0.000153 -0.032148 0.015310 0.991669 -0.107159 0.071478 53 127 43
-0.001215 0.005880 -0.008838 0.982458 0.147207 -0.114484 210 184 0
-0.005314 -0.027928 0.017148 -0.990277 0.128476 0.053342 195 166 1
-0.006539 -0.035058 0.022949 -0.975363 0.192418 -0.107900 182 158 0
-0.006618 -0.040556 0.026649 -0.215846 -0.868000 0.447197 209 186 0
-0.005611 -0.030342 0.019004 -0.991482 0.124900 -0.036928 171 150 4
-0.005497 -0.029543 0.018374 -0.992459 0.122539 0.003164 183 165 0
-0.004132 0.005170 -0.005761 -0.948689 -0.298841 0.103357 181 149 1
0.000372 -0.028975 0.012738 0.994438 -0.089142 0.056109 46 128 39
-0.004846 0.007911 -0.006931 -0.993273 -0.100698 0.057166 178 149 0
-0.013382 0.053434 -0.029330 0.939869 0.320360 -0.118388 220 185 2
-0.001629 -0.039197 0.021273 0.986406 -0.154778 0.055208 47 122 43
-0.038746 0.058794 -0.010144 0.045145 -0.994499 0.094519 182 155 0
-0.006087 -0.033535 0.021530 -0.979341 0.188158 -0.074076 175 155 0
-0.002897 -0.001106 -0.002734 -0.988574 0.113696 -0.098961 193 157 2
-0.006306 -0.034300 0.022228 -0.975423 0.192747 -0.106763 182 158 0
-0.042077 0.061769 -0.009124 -0.056114 0.985396 -0.160772 223 196 0
-0.041288 0.061624 -0.009736 -0.066031 0.955549 -0.287341 220 193 2
-0.005128 -0.023808 0.014246 -0.982624 0.104030 0.153716 195 166 26
-0.002450 -0.043111 0.024587 0.969904 -0.241314 -0.032467 26 125 37
-0.002225 -0.042346 0.023880 0.971946 -0.223717 0.072611 36 126 34
0.000591 -0.027376 0.011476 0.995888 -0.065664 0.062413 51 126 43
-0.004392 -0.011495 0.005460 -0.965997 0.257948 -0.017660 185 167 2
-0.005125 -0.022135 0.013139 -0.974393 0.127027 0.185532 186 171 0
-0.035611 0.058276 -0.012615 0.048544 -0.998738 -0.012911 147 142 103
-0.014915 0.058121 -0.031059 0.961050 0.208731 -0.181149 74 54 24
-0.036367 0.058230 -0.011908 -0.032355 -0.832558 0.552993 180 152 0
-0.038158 0.061443 -0.012424 -0.045926 0.948090 -0.314669 216 192 32
0.000129 -0.030571 0.013999 0.989637 -0.113032 0.088559 56 127 43
-0.000689 -0.010210 0.001293 0.996893 -0.076199 0.019923 197 159 7
-0.006770 -0.035821 0.023646 -0.973190 0.203950 -0.106329 184 160 1
-0.005019 0.008803 -0.007376 -0.985160 -0.127532 0.114876 184 151 1
-0.000289 -0.032944 0.015940 0.987256 -0.146567 0.061994 47 128 48
-0.004670 -0.012240 0.006201 -0.930729 0.343078 0.126651 185 167 2
-0.001812 0.010253 -0.011206 0.990012 0.138732 0.025085 102 96 17
-0.005118 -0.022974 0.013687 -0.975705 0.119047 0.183926 188 176 0
-0.005189 -0.026300 0.015944 -0.991300 0.100064 0.085502 195 170 2
-0.008256 -0.038678 0.026861 -0.974753 -0.132276 0.179889 193 161 0
-0.000928 -0.036081 0.018581 0.985791 -0.152045 0.071410 45 127 42
-0.037186 0.058731 -0.011507 -0.005744 -0.893260 0.449505 169 153 16
-0.001452 -0.038420 0.020593 0.983157 -0.168184 0.071532 45 123 44
-0.005239 -0.027120 0.016528 -0.990055 0.125791 0.062977 189 169 5
-0.001270 -0.037643 0.019917 0.984686 -0.159600 0.070159 46 125 42
-0.013013 0.052465 -0.029035 0.941592 0.315467 -0.117837 226 157 60
-0.004436 0.006096 -0.006116 -0.966261 -0.242059 0.088013 182 150 0
-0.014101 0.055337 -0.029955 0.939808 0.318328 -0.124210 220 187 6
-0.000145 -0.003693 -0.003500 0.955595 -0.293865 -0.021960 200 167 0
-0.007837 -0.037132 0.025463 -0.835526 0.516413 -0.187649 187 159 0
0.000077 -0.002929 -0.004203 0.966562 -0.251814 -0.048469 207 171 0
-0.000014 -0.031362 0.014643 0.990719 -0.116539 0.069950 57 130 50
-0.037964 0.058762 -0.010833 0.043997 -0.994313 0.096987 183 155 0
0.000477 -0.028177 0.012101 0.994250 -0.079200 0.072062 49 125 40
-0.001099 -0.036863 0.019247 0.985845 -0.151278 0.072289 42 125 46
-0.014463 0.056291 -0.030265 0.942192 0.308615 -0.130504 218 181 7
-0.000605 -0.007730 -0.000430 0.999484 -0.026036 0.018846 214 173 3
-0.001384 0.006758 -0.009294 0.988235 0.119042 -0.096026 210 186 16
-0.038950 0.061608 -0.011833 -0.039345 0.952511 -0.301952 167 154 15
-0.000764 -0.035300 0.017910 0.988601 -0.132606 0.071305 49 128 40
-0.000584 -0.006900 -0.000996 0.999856 -0.016717 -0.002888 207 154 9
-0.004081 -0.009091 0.003582 -0.999825 0.018616 -0.002080 189 159 0
-0.041089 0.058864 -0.008106 0.012866 -0.953602 0.300795 185 164 0
-0.005116 -0.024654 0.014778 -0.987670 0.107304 0.113992 194 172 0
-0.000634 -0.008559 0.000138 0.999500 -0.025002 0.019346 213 178 0
0.000263 -0.029784 0.013341 0.993510 -0.090687 0.068663 49 128 39
-0.000622 -0.034513 0.017256 0.991677 -0.121985 0.041182 54 127 32
-0.001518 0.007635 -0.009761 0.992382 0.094844 -0.078630 214 188 50
-0.005402 -0.028745 0.017731 -0.991447 0.128038 0.025305 191 166 0
-0.012659 0.051500 -0.028731 0.943864 0.309923 -0.114316 218 176 28
-0.016744 0.054527 -0.027070 -0.966601 -0.243200 0.080853 191 161 2
-0.016246 0.052688 -0.026303 -0.965605 -0.247847 0.078604 185 158 0
-0.000671 -0.009386 0.000710 0.999051 -0.043358 0.004138 207 177 0
-0.004077 -0.007424 0.002465 -0.999340 -0.027694 -0.023505 195 157 1
-0.005901 -0.032768 0.020827 -0.988700 0.146882 -0.029978 158 144 2
-0.002687 0.000487 -0.004007 -0.995981 -0.003728 -0.089485 188 154 2
-0.004068 -0.008265 0.003007 -0.999924 -0.009467 -0.007876 190 156 0
-0.003751 0.004177 -0.005490 -0.935679 -0.330010 0.124890 181 150 1
-0.039528 0.058817 -0.009494 0.053484 -0.994907 0.085437 184 158 0
-0.004666 0.006992 -0.006531 -0.978714 -0.194335 0.065976 182 149 0
-0.017020 0.055443 -0.027439 -0.939126 -0.317363 0.131616 194 157 4
-0.039736 0.061696 -0.011211 -0.043965 0.993997 0.100185 217 193 0
-0.016493 0.053599 -0.026698 -0.970399 -0.229869 0.074062 186 158 0
-0.004089 -0.006587 0.001911 -0.999188 -0.032079 -0.024382 197 158 1
-0.000470 -0.033730 0.016582 0.984142 -0.173553 0.036662 57 126 45
-0.003368 0.003207 -0.005201 -0.937668 -0.331822 0.103312 183 148 0
-0.004107 -0.005745 0.001370 -0.999190 -0.037321 -0.015047 201 164 1
-0.003007 0.002250 -0.004895 -0.939600 -0.338249 0.052348 181 152 1
-0.001913 -0.040787 0.022528 0.990715 -0.127612 0.046894 35 123 42
-0.005019 -0.041781 0.025965 -0.768783 -0.637176 0.054594 116 113 0
-0.003933 -0.004123 0.000134 -0.981541 0.149587 -0.119171 217 184 3
-0.003058 -0.001888 -0.002131 -0.964146 0.197931 -0.176763 198 165 3
-0.008296 -0.037856 0.026279 -0.972464 0.222187 -0.070331 186 158 1
-0.043199 0.060460 -0.007342 -0.040446 0.272106 0.961417 237 211 10
-0.043254 0.061323 -0.007867 0.011000 0.706612 0.707515 230 202 0
-0.000084 -0.000622 -0.005701 0.932863 0.119546 -0.339818 213 182 0
-0.000720 0.003485 -0.007883 0.956265 0.037474 -0.290091 199 167 1
0.000166 -0.002218 -0.004922 0.976764 -0.160142 -0.142436 211 175 0
-0.000435 0.001173 -0.006648 0.878262 -0.185303 -0.440817 228 198 37
-0.002743 -0.000423 -0.003625 -0.992755 0.080046 -0.089613 190 155 2
-0.000023 -0.001023 -0.005686 0.933440 0.106910 -0.342434 213 182 0
-0.001026 0.004710 -0.008658 0.977121 0.109558 -0.182296 207 181 0
-0.002642 0.001126 -0.004959 -0.979880 -0.185034 -0.074814 187 152 3
-0.004361 -0.042706 0.025499 -0.819442 -0.572254 0.032245 47 110 0
-0.043845 0.060949 -0.007552 0.012951 0.534138 0.845298 238 213 0
-0.014686 0.057029 -0.031130 0.933145 0.289121 -0.213659 218 159 69
-0.012630 0.049558 -0.028092 0.879670 -0.217755 0.422804 70 55 44
-0.043567 0.061632 -0.008366 -0.041873 0.942530 0.331486 227 198 0
-0.042806 0.059215 -0.007530 -0.026874 -0.582757 0.812202 197 162 0
-0.043814 0.060129 -0.007295 -0.020400 0.048065 0.998636 197 180 0
-0.042264 0.058908 -0.007917 0.023683 -0.893210 0.449016 190 160 0
-0.044273 0.061309 -0.007825 0.004319 0.724056 0.689728 229 201 0
-0.044249 0.060548 -0.007375 -0.003343 0.275712 0.961235 246 221 6
-0.043615 0.061770 -0.008802 -0.099363 0.988365 -0.115165 225 195 0
0.000578 -0.027823 0.010727 0.998532 -0.052449 0.013510 48 112 43
-0.000569 -0.034189 0.015842 0.990142 -0.139679 0.010454 47 128 48
-0.007922 -0.040129 0.026339 -0.898137 -0.369766 0.237957 211 187 0
-0.000843 0.001778 -0.007707 0.807994 -0.297318 -0.508672 200 170 1
-0.001295 0.005506 -0.009774 0.986035 0.090817 -0.139598 210 180 0
-0.002833 0.001767 -0.005990 -0.902202 -0.431206 -0.009593 188 150 3
-0.043960 0.059644 -0.007350 -0.008233 -0.249494 0.968342 197 180 0
-0.000022 -0.031928 0.013697 0.990008 -0.115511 0.080881 56 127 43
-0.000802 0.000290 -0.006924 0.728053 -0.189471 -0.658818 205 172 0
-0.000605 -0.035119 0.016243 0.994211 -0.090676 0.057650 56 129 42
-0.012940 0.051838 -0.030128 0.942450 0.314164 -0.114410 217 188 3
-0.014414 0.055674 -0.031355 0.951830 0.303613 -0.042894 218 181 7
-0.001645 0.007898 -0.011266 0.996835 0.055094 -0.057298 221 171 79
-0.008425 -0.038406 0.025366 -0.948608 0.312914 -0.047195 187 159 0
-0.001953 -0.041398 0.021540 0.990883 -0.130070 0.035108 38 123 40
-0.001825 -0.040605 0.020899 0.989647 -0.137566 0.040917 34 125 43
-0.006547 -0.035694 0.021889 -0.975283 0.192491 -0.108493 182 155 0
-0.003141 -0.002501 -0.003073 -0.961806 0.260082 -0.085366 191 155 1
-0.041139 0.061635 -0.011355 -0.044216 0.995272 -0.086474 215 194 10
-0.001429 0.006148 -0.010317 0.990114 0.092178 -0.105721 213 185 22
-0.004078 -0.006372 0.000318 -0.999853 -0.013013 -0.011215 195 161 2
-0.000351 -0.004265 -0.004412 0.964618 -0.262602 -0.023496 196 162 0
-0.006126 -0.034160 0.020493 -0.982413 0.172566 -0.071318 178 157 0
-0.008201 -0.038008 0.024891 -0.903419 0.421755 -0.077181 186 159 0
-0.004093 0.004520 -0.006860 -0.938441 -0.313791 0.144447 188 155 0
-0.001548 0.007021 -0.010792 0.993567 0.076548 -0.083458 221 193 50
-0.004071 -0.007212 0.000863 -0.999977 0.001990 0.006522 194 157 0
-0.042492 0.058784 -0.008267 0.038092 -0.968906 0.244476 190 160 0
-0.005513 -0.029339 0.016758 -0.991330 0.122328 0.047979 188 169 4
-0.015483 0.050146 -0.026771 -0.922113 -0.344797 0.175562 188 166 2
-0.015875 0.051111 -0.027056 -0.943436 -0.304298 0.131650 186 161 5
-0.016186 0.052048 -0.027396 -0.963106 -0.251937 0.094632 189 160 0
-0.000608 -0.005849 -0.003144 0.999180 -0.021547 -0.034287 203 170 0
-0.008345 -0.039285 0.025858 -0.957188 -0.218422 0.189955 192 160 0
-0.000196 -0.001689 -0.006258 0.917482 0.071662 -0.391267 212 178 0
-0.001665 -0.039823 0.020226 0.984052 -0.164470 0.067752 45 123 44
-0.005587 -0.030153 0.017358 -0.992434 0.119413 0.028525 189 169 0
-0.006781 -0.036456 0.022588 -0.973559 0.198233 -0.113519 186 157 1
-0.000524 -0.005043 -0.003752 0.975195 -0.221078 -0.010875 203 170 0
-0.041711 0.058737 -0.008942 0.052262 -0.993471 0.101411 188 160 1
-0.005397 -0.027705 0.015569 -0.986330 0.133572 0.096500 193 168 0
-0.040352 0.061506 -0.011989 -0.038150 0.972987 -0.227686 210 191 31
-0.004065 -0.005543 -0.000252 -0.997267 0.045039 -0.058568 198 163 0
-0.003426 -0.003252 -0.002339 -0.959331 0.245829 -0.138751 197 161 3
-0.004659 0.006372 -0.007587 -0.974900 -0.191238 0.114005 184 154 0
-0.016962 0.054807 -0.028530 -0.935106 -0.331517 0.125197 190 161 0
-0.016674 0.053880 -0.028176 -0.966575 -0.245223 0.074823 193 162 1
-0.003708 -0.003991 -0.001600 -0.976261 0.178055 -0.123337 197 161 3
-0.001483 -0.039048 0.019544 0.983019 -0.168935 0.071667 30 125 31
-0.040149 0.058707 -0.010327 0.055989 -0.994113 0.092766 182 158 0
-0.016431 0.052961 -0.027789 -0.972861 -0.221641 0.066452 188 159 0
-0.000971 -0.036706 0.017539 0.986332 -0.161748 0.031398 58 126 37
-0.015101 0.057179 -0.031767 0.805670 0.413964 -0.423709 192 160 15
-0.041914 0.061547 -0.010623 -0.004276 0.992880 0.119041 217 194 0
-0.000731 -0.009998 -0.000305 0.997478 -0.070968 -0.000830 208 172 5
-0.005167 0.009050 -0.008902 -0.987975 -0.139374 0.066929 174 156 0
-0.015017 0.049144 -0.026538 -0.905370 -0.376166 0.196989 173 148 2
-0.001729 0.009586 -0.012337 0.993732 0.073584 -0.084161 176 158 1
-0.004807 -0.042143 0.024564 -0.438763 -0.789558 0.429053 175 154 0
-0.039560 0.061338 -0.012593 -0.003882 0.961822 -0.273648 167 154 15
-0.000126 -0.032801 0.014203 0.992984 -0.089768 0.076972 54 124 54
-0.017316 0.055479 -0.028660 -0.891988 -0.406987 0.196770 194 157 4
-0.038585 0.058622 -0.011675 -0.025432 -0.888219 0.458715 159 147 63
-0.005264 -0.025240 0.013817 -0.990837 0.095863 0.095139 106 92 37
0.000174 -0.031226 0.012894 0.990909 -0.100341 0.089610 53 124 43
-0.005315 -0.026897 0.014956 -0.989750 0.115005 0.084667 125 117 5
0.000273 -0.030421 0.012275 0.995359 -0.078141 0.056173 55 125 53
0.000521 -0.028829 0.011002 0.994762 -0.077931 0.066152 52 126 43
-0.037770 0.058139 -0.012086 -0.042462 -0.676797 0.734944 169 153 16
0.000370 -0.029617 0.011656 0.993324 -0.092340 0.069140 55 126 43
-0.000786 -0.035931 0.016860 0.981027 -0.187137 0.050666 47 125 40
-0.003987 -0.011432 0.003559 -0.997756 -0.043272 -0.051092 172 162 8
-0.005324 -0.026057 0.014410 -0.990199 0.101384 0.096054 174 171 29
-0.006327 -0.034934 0.021164 -0.978297 0.184557 -0.094207 176 156 0
-0.039369 0.058682 -0.011016 0.045586 -0.994237 0.097031 183 155 0
-0.004846 0.007267 -0.008017 -0.986411 -0.142249 0.082210 181 155 0
-0.043479 0.061643 -0.009288 -0.098475 0.950583 -0.294438 225 195 0
-0.001704 0.008738 -0.011806 0.998429 0.032359 -0.045751 194 168 21
-0.005953 -0.033386 0.019805 -0.988998 0.143602 -0.035508 175 155 0
-0.013292 0.052754 -0.030473 0.941518 0.318016 -0.111397 215 170 38
-0.004409 0.005446 -0.007209 -0.961225 -0.239466 0.136755 185 156 0
-0.005452 -0.028528 0.016149 -0.990735 0.118747 0.065894 195 166 10
-0.004099 -0.009722 0.002525 -0.999529 0.030673 -0.000092 191 163 0
-0.000600 -0.006696 -0.002610 0.999651 -0.011492 -0.023797 211 173 0
-0.007493 -0.037459 0.023872 -0.701864 0.635707 -0.321349 186 159 0
-0.004076 -0.008057 0.001402 -0.999696 0.019623 0.014897 193 159 1
-0.005011 0.008155 -0.008464 -0.986995 -0.146770 0.065580 186 153 1
-0.001299 -0.038274 0.018853 0.983766 -0.165466 0.069471 37 128 33
-0.006444 -0.041224 0.025410 -0.201780 -0.870364 0.449166 198 176 0
-0.003906 -0.004765 -0.000929 -0.985366 0.136454 -0.102154 200 166 0
-0.014020 0.054662 -0.031091 0.935022 0.330185 -0.129274 218 181 11
-0.001126 -0.037496 0.018182 0.985579 -0.157324 0.062310 43 126 45
-0.005666 -0.030971 0.017942 -0.992908 0.117019 0.020956 185 162 3
-0.007029 -0.037240 0.023300 -0.900734 0.378563 -0.212996 186 158 0
-0.000600 -0.007537 -0.002066 0.999752 -0.017343 -0.013981 204 148 31
-0.004085 -0.008894 0.001952 -0.999743 0.020493 0.009773 192 158 0
-0.005636 -0.041652 0.024963 -0.230468 -0.850907 0.472062 192 165 0
-0.000652 -0.009193 -0.000927 0.997942 -0.062383 0.014822 208 172 5
-0.005756 -0.031779 0.018553 -0.993533 0.113392 -0.005943 174 152 0
-0.000612 -0.008371 -0.001507 0.999559 -0.029508 -0.003360 210 171 0
-0.002625 -0.000611 -0.004827 -0.986738 0.081424 -0.140424 189 157 2
-0.014655 0.056544 -0.031770 0.887179 0.381119 -0.260118 192 160 15
-0.007272 -0.040807 0.025862 -0.289905 -0.853316 0.433366 206 183 0
-0.005848 -0.032588 0.019160 -0.994147 0.107141 -0.013892 174 149 0
-0.002079 -0.042206 0.022129 0.989649 -0.136497 0.044309 31 124 39
-0.044977 0.060910 -0.007490 0.080676 0.455352 0.886649 252 228 0
-0.040931 0.058722 -0.009673 0.057605 -0.994727 0.084853 185 157 0
-0.002229 -0.042993 0.022776 0.974816 -0.196189 0.106031 38 127 35
-0.003699 0.003513 -0.006602 -0.921484 -0.370744 0.115823 187 154 0
-0.012575 0.050821 -0.029873 0.946615 0.302818 -0.110548 214 194 0
-0.003224 0.002515 -0.006371 -0.891972 -0.450628 0.036321 187 154 1
-0.000132 -0.003502 -0.005170 0.964428 -0.253651 -0.074432 201 165 0
-0.002888 -0.001751 -0.003862 -0.977352 0.186428 -0.100135 191 158 1
-0.042687 0.061456 -0.009917 -0.049301 0.991855 -0.117443 218 194 0
-0.012250 0.049882 -0.029561 0.952586 0.286869 -0.101426 212 183 2
-0.002498 0.000137 -0.005475 -0.987309 -0.017810 -0.157808 189 154 9
-0.001085 0.003691 -0.009127 0.960884 -0.056415 -0.271145 192 164 0
-0.012270 0.049073 -0.029059 0.880939 -0.205960 0.426060 63 47 7
-0.044963 0.061392 -0.007942 0.024669 0.854838 0.518307 229 201 0
-0.001042 0.001075 -0.007519 0.620500 -0.394591 -0.677700 203 171 6
-0.012987 0.048392 -0.028049 0.855641 -0.211741 0.472276 44 42 21
-0.000740 -0.000498 -0.006769 0.689953 0.039174 -0.722794 218 183 2
-0.044875 0.060197 -0.007309 0.035447 0.075846 0.996489 213 193 0
-0.001060 0.002667 -0.008611 0.874376 -0.260976 -0.409094 205 173 7
-0.002439 0.000576 -0.005995 -0.985805 -0.093245 -0.139619 189 154 9
-0.000498 -0.001213 -0.006590 0.776467 0.145845 -0.613048 212 181 0
-0.000144 -0.002329 -0.006170 0.946828 -0.018808 -0.321187 205 171 0
-0.000123 -0.003048 -0.005820 0.970269 -0.160635 -0.181035 203 169 0
-0.004164 -0.010744 0.002777 -0.997283 -0.073499 -0.005006 187 167 0
-0.043545 0.058865 -0.007892 0.040775 -0.850917 0.523715 186 162 0
-0.045700 0.061124 -0.007507 0.115330 0.626929 0.770493 241 213 1
-0.045688 0.060854 -0.007345 0.118041 0.373124 0.920242 251 223 6
-0.045599 0.060554 -0.007288 0.112865 0.167472 0.979395 227 209 3
-0.002607 -0.043972 0.023160 0.870404 -0.282584 0.403166 21 118 5
-0.001278 0.000441 -0.007373 0.284461 -0.356709 -0.889854 202 165 5
-0.013600 0.053383 -0.031308 0.941320 0.318202 -0.112538 223 168 21
-0.044348 0.059131 -0.007561 0.029109 -0.586462 0.809453 202 163 0
-0.003033 0.002145 -0.007012 -0.869381 -0.493926 -0.014557 186 154 6
-0.044121 0.061490 -0.009379 -0.139836 0.968816 -0.204554 225 195 0
-0.002340 0.000029 -0.006328 -0.972769 -0.070502 -0.220792 176 155 35
-0.002399 0.001063 -0.006973 -0.840227 -0.417032 -0.346558 193 154 2
-0.001420 0.005445 -0.010744 0.990653 0.051909 -0.126142 209 178 4
-0.045913 0.061408 -0.007829 0.057990 0.899407 0.433247 226 200 0
-0.001324 0.004460 -0.010220 0.981200 -0.027700 -0.190998 202 178 1
-0.001408 0.001826 -0.008413 0.522393 -0.591088 -0.614589 197 166 0
-0.045149 0.059554 -0.007350 0.044979 -0.253376 0.966322 197 165 1
-0.003475 0.002915 -0.007350 -0.875777 -0.482079 0.024794 195 154 0
-0.001664 0.001091 -0.007783 -0.040522 -0.600498 -0.798599 202 165 5
-0.001297 -0.000437 -0.007143 0.213129 -0.073740 -0.974237 191 159 0
-0.046351 0.061152 -0.007425 0.081135 0.585322 0.806731 235 207 0
-0.014690 0.056119 -0.032489 0.816210 0.573536 -0.069694 217 161 41
-0.001714 0.000274 -0.007273 -0.327770 -0.330044 -0.885233 191 159 0
-0.040809 0.061397 -0.012617 0.003353 0.987963 -0.154653 215 189 32
-0.012583 0.047856 -0.029019 0.874444 -0.191689 0.445648 44 42 21
-0.045227 0.061530 -0.008800 -0.068258 0.994180 -0.083351 225 198 0
-0.002719 -0.001702 -0.005172 -0.970147 0.187048 -0.154362 192 162 1
-0.045879 0.060034 -0.007243 0.050790 -0.041132 0.997862 209 191 0
-0.046360 0.060652 -0.007252 0.069417 0.157900 0.985012 251 223 6
-0.002445 -0.000939 -0.005962 -0.961494 0.095525 -0.257690 194 159 9
-0.014998 0.048615 -0.027430 -0.872078 -0.450714 0.190623 93 80 0
-0.000334 -0.003934 -0.005915 0.961449 -0.239818 -0.134550 190 158 3
-0.001049 -0.001184 -0.007114 0.483031 0.155334 -0.861714 192 165 2
-0.013996 0.055778 -0.033147 0.940718 0.250613 0.228563 210 170 37
-0.001062 -0.037261 0.016616 0.986266 -0.165155 0.001799 47 125 40
-0.002140 0.009970 -0.013599 0.459530 0.882574 0.099473 120 88 35
-0.003151 -0.002959 -0.004171 -0.960905 0.248194 -0.122727 193 158 4
-0.002025 0.009922 -0.013698 0.989706 0.123527 -0.072266 120 88 35
-0.004852 0.006661 -0.009044 -0.991580 -0.111902 0.065173 186 157 0
-0.002298 -0.043684 0.021894 0.970365 -0.235146 0.055647 38 122 45
-0.002965 -0.002501 -0.004694 -0.962280 0.239469 -0.129123 193 158 4
-0.004117 -0.009498 0.000955 -0.999717 0.011694 0.020689 190 162 0
-0.004437 0.004846 -0.008238 -0.943984 -0.281405 0.172352 190 159 0
-0.013204 0.052116 -0.031582 0.941405 0.318846 -0.109971 215 170 38
-0.015469 0.049520 -0.027841 -0.916573 -0.346603 0.199398 190 169 1
-0.004688 0.005759 -0.008621 -0.972775 -0.187259 0.136541 187 157 0
-0.001867 -0.041229 0.019858 0.987307 -0.150768 0.049949 37 123 36
-0.005847 -0.032376 0.017579 -0.991805 0.123111 0.034160 185 166 1
-0.015849 0.050466 -0.028143 -0.941294 -0.293846 0.166195 189 160 0
-0.004114 -0.008674 0.000375 -0.999119 0.027638 0.031570 189 162 0
-0.003723 -0.004622 -0.002652 -0.976424 0.198178 -0.085573 195 159 2
-0.016138 0.051390 -0.028497 -0.972312 -0.221425 0.074698 190 157 0
-0.003910 -0.005397 -0.001974 -0.987738 0.138013 -0.072986 195 159 2
-0.040772 0.058592 -0.011178 0.055846 -0.994687 0.086478 182 157 0
-0.006547 -0.036335 0.020805 -0.977634 0.179021 -0.110374 183 157 0
-0.005649 -0.029934 0.015775 -0.988122 0.122678 0.092550 187 173 4
-0.041552 0.058607 -0.010490 0.058677 -0.994047 0.091794 184 157 0
-0.001601 0.006396 -0.011834 0.994729 0.052768 -0.087908 218 188 60
-0.044088 0.061349 -0.010030 -0.071153 0.990142 -0.120647 221 194 0
-0.043894 0.058666 -0.008435 0.061834 -0.981976 0.178603 188 160 0
-0.005934 -0.033189 0.018175 -0.992317 0.121776 0.021852 187 163 0
-0.041751 0.061362 -0.012136 -0.079428 0.982067 -0.170985 169 147 49
-0.008230 -0.038314 0.023614 -0.849732 0.480337 -0.217330 184 157 0
-0.001675 0.007256 -0.012339 0.996193 0.043564 -0.075513 223 180 79
-0.006235 -0.041950 0.024223 -0.206680 -0.808725 0.550678 192 170 0
-0.006155 -0.034792 0.019427 -0.985597 0.158614 -0.058645 183 159 0
-0.001334 -0.038900 0.017814 0.983817 -0.166005 0.067431 32 129 42
-0.016856 0.054136 -0.029682 -0.953176 -0.284799 0.101708 185 158 21
-0.039099 0.058152 -0.012400 -0.030239 -0.778916 0.626400 159 147 63
-0.000657 -0.009825 -0.001982 0.999051 -0.042076 -0.011259 181 149 53
-0.003729 -0.044221 0.023473 -0.013238 -0.248727 0.968484 21 118 5
-0.043113 0.058641 -0.009125 0.055337 -0.994200 0.092216 185 160 0
-0.012688 0.047407 -0.028975 0.874561 -0.178553 0.450846 52 42 31
-0.001166 -0.038119 0.017148 0.988834 -0.146387 0.027890 39 127 38
-0.005605 -0.029115 0.015183 -0.985758 0.119775 0.118043 186 169 16
-0.001514 -0.039677 0.018489 0.983105 -0.169028 0.070237 40 117 31
-0.004590 -0.043102 0.023506 -0.180340 -0.430330 0.884473 175 158 15
-0.014922 0.048473 -0.027677 -0.862572 -0.448716 0.233713 184 164 2
-0.005614 -0.028275 0.014637 -0.979799 0.140827 0.141999 178 169 35
-0.005140 0.008401 -0.009995 -0.991593 -0.127794 0.020300 181 153 1
-0.005414 -0.042522 0.023860 -0.252496 -0.742073 0.620944 181 166 0
-0.000535 -0.004844 -0.005383 0.967550 -0.241960 -0.072817 194 156 0
-0.008392 -0.039913 0.024804 -0.947545 -0.267016 0.175672 188 158 0
-0.000665 -0.005636 -0.004745 0.990029 -0.134406 -0.042171 194 156 0
-0.012498 0.050178 -0.030980 0.945868 0.303925 -0.113859 223 192 0
-0.001899 0.008999 -0.013299 0.990420 0.073004 -0.117217 188 176 6
-0.004100 -0.010347 0.001442 -0.991131 -0.122543 -0.051402 185 160 0
-0.041209 0.061350 -0.012626 -0.091064 0.990687 -0.101230 215 189 32
-0.001697 -0.040455 0.019159 0.983891 -0.165538 0.067492 28 125 37
-0.007051 -0.041484 0.024636 -0.261787 -0.827206 0.497190 204 180 0
-0.006020 -0.034002 0.018772 -0.992077 0.125263 0.009583 182 161 0
-0.004038 -0.006198 -0.001357 -0.995347 0.082694 -0.049451 190 159 0
-0.006779 -0.037098 0.021495 -0.970640 0.204458 -0.126704 182 155 0
-0.007312 -0.037967 0.022545 -0.664773 0.658135 -0.353463 188 160 1
-0.001764 0.008115 -0.012842 0.992694 0.047668 -0.110839 204 189 49
-0.042541 0.061491 -0.011532 -0.065517 0.966547 -0.247981 222 186 15
-0.000661 -0.006480 -0.004200 0.998786 -0.010940 -0.048035 207 166 1
-0.005774 -0.031573 0.016944 -0.991411 0.122419 0.046026 193 167 0
-0.000656 -0.008993 -0.002547 0.998334 -0.041323 -0.040254 206 147 15
-0.011868 0.048269 -0.030295 0.972763 0.010939 0.231541 206 182 5
-0.042334 0.058623 -0.009827 0.057811 -0.994272 0.089892 184 157 0
-0.012165 0.049224 -0.030660 0.956114 0.279629 -0.087479 213 185 0
-0.000637 -0.007327 -0.003666 0.999188 -0.005216 -0.039953 210 159 4
-0.006336 -0.035573 0.020082 -0.981695 0.169182 -0.087477 183 157 0
-0.043327 0.061576 -0.010892 -0.042368 0.997331 -0.059468 221 190 9
-0.039986 0.058579 -0.011912 0.002126 -0.927332 0.374233 177 150 4
-0.004974 0.007496 -0.009571 -0.990435 -0.126983 0.053986 187 154 1
-0.016584 0.053192 -0.029330 -0.967258 -0.245452 0.064534 194 160 0
-0.008521 -0.039024 0.024310 -0.997178 0.064261 0.038830 186 159 0
-0.013935 0.054002 -0.032240 0.940154 0.324139 -0.105095 215 157 60
-0.000636 -0.008168 -0.003124 0.999105 -0.034980 -0.023770 206 147 15
-0.002541 -0.044362 0.022471 0.945516 -0.289926 0.148127 21 118 5
-0.016337 0.052272 -0.028948 -0.973749 -0.222898 0.046142 190 158 0
-0.005708 -0.030764 0.016333 -0.990428 0.121997 0.064569 189 169 4
-0.007901 -0.040896 0.024983 -0.708117 -0.602728 0.367819 204 180 0
-0.012841 0.051107 -0.031320 0.946200 0.303849 -0.111276 225 190 2
-0.004086 -0.007029 -0.000796 -0.999559 0.029698 0.000723 190 159 0
-0.004105 -0.007861 -0.000232 -0.998740 0.039034 0.031550 193 157 5
-0.003480 -0.003877 -0.003433 -0.965579 0.242282 -0.094638 192 157 1
-0.013552 0.052997 -0.031958 0.937962 0.326058 -0.117953 218 177 9
-0.001423 0.003328 -0.010052 0.906798 -0.297826 -0.298357 186 159 0
-0.002011 -0.042098 0.020437 0.989823 -0.138456 0.032856 37 123 37
-0.003961 0.003707 -0.008067 -0.884877 -0.451595 0.114259 192 159 0
-0.002040 -0.000717 -0.006883 -0.714501 0.016820 -0.699432 191 159 0
-0.047052 0.060945 -0.007264 0.022023 0.429215 0.902934 245 220 4
-0.047009 0.061280 -0.007526 -0.018786 0.782362 0.622540 228 200 0
-0.002169 -0.043100 0.021144 0.988145 -0.149876 0.033291 40 122 33
-0.044753 0.058770 -0.007934 0.051920 -0.851612 0.521595 187 162 0
-0.045496 0.059056 -0.007556 0.042670 -0.615755 0.786781 197 165 1
-0.003961 -0.010543 0.001131 -0.908249 -0.397263 -0.131400 185 160 0
-0.046090 0.059464 -0.007324 0.030872 -0.312145 0.949533 205 180 3
-0.046826 0.061480 -0.008019 -0.025208 0.967483 0.251680 228 200 0
-0.000410 -0.003774 -0.006574 0.962012 -0.181845 -0.203632 192 159 0
-0.003194 0.002547 -0.008285 -0.750236 -0.653342 -0.101443 194 158 7
-0.005699 -0.030100 0.015501 -0.986064 0.124256 0.110627 187 173 4
-0.000452 -0.003255 -0.006945 0.938606 -0.015128 -0.344660 199 165 0
-0.001720 0.002547 -0.009704 0.632935 -0.660069 -0.404600 199 161 3
-0.001510 0.004956 -0.011488 0.992125 -0.037866 -0.119385 207 170 0
-0.003145 -0.045237 0.023101 0.170959 -0.246848 0.953855 83 135 50
-0.014234 0.054687 -0.032952 0.995624 0.035266 0.086538 210 170 37
-0.002276 0.002041 -0.008928 -0.280839 -0.869838 -0.405598 199 161 3
-0.002912 -0.002657 -0.005327 -0.958011 0.238241 -0.159552 195 162 1
-0.000723 -0.002666 -0.007334 0.771822 0.225700 -0.594433 203 172 0
-0.012178 0.047247 -0.030030 0.853735 -0.157988 0.496162 52 42 31
-0.002670 -0.002165 -0.005954 -0.948278 0.216618 -0.232048 195 162 1
-0.001623 -0.001637 -0.007312 -0.223419 0.278884 -0.933974 196 166 5
-0.002397 -0.001765 -0.006546 -0.913564 0.202527 -0.352682 174 150 33
-0.047032 0.059818 -0.007209 0.054254 -0.167413 0.984393 205 180 3
-0.047602 0.060444 -0.007142 0.040455 0.087683 0.995327 235 210 0
-0.001354 -0.039284 0.017172 0.983924 -0.166848 0.063688 32 129 42
-0.001208 -0.002159 -0.007464 0.273401 0.396527 -0.876367 199 164 4
-0.042147 0.061265 -0.012678 -0.054269 0.998102 -0.029137 216 191 31
-0.000588 -0.004576 -0.006531 0.968708 -0.207312 -0.136477 188 159 0
-0.003259 -0.003672 -0.004816 -0.957142 0.259022 -0.129562 197 163 1
-0.048141 0.060891 -0.007266 -0.038753 0.511974 0.858127 241 213 2
-0.045825 0.058713 -0.007916 0.043110 -0.837419 0.544859 191 163 1
-0.002356 -0.044029 0.020933 0.961864 -0.272955 0.017719 40 122 33
-0.001639 0.003890 -0.011470 0.951008 -0.248898 -0.183395 190 156 1
-0.004166 -0.008442 -0.001170 -0.998414 0.051798 0.022030 191 159 8
-0.003999 -0.045381 0.023054 -0.076640 -0.221640 0.972113 83 135 50
-0.048258 0.061279 -0.007686 -0.076762 0.867722 0.491087 230 204 0
-0.012790 0.050517 -0.032370 0.949709 0.291487 -0.114397 218 188 0
-0.042699 0.061271 -0.012670 0.017063 0.990500 0.136450 210 187 38
-0.007061 -0.038461 0.021214 -0.872158 0.420162 -0.250608 184 160 2
-0.003771 -0.005239 -0.003664 -0.979372 0.193112 -0.059481 194 159 0
-0.005154 -0.044124 0.023239 -0.128391 -0.223699 0.966165 199 189 2
-0.004049 -0.006817 -0.002376 -0.994410 0.099449 -0.035489 191 159 0
-0.011658 0.046796 -0.030949 0.951536 0.045343 0.304180 120 77 11
-0.004473 0.004217 -0.009293 -0.907737 -0.401864 0.120489 196 165 3
-0.045490 0.061226 -0.010163 -0.086266 0.995352 -0.042805 221 193 0
-0.001639 0.005781 -0.012867 0.997532 0.065658 -0.024875 218 169 83
-0.016502 0.052562 -0.030425 -0.954536 -0.277450 0.109005 193 163 1
-0.001744 0.006652 -0.013348 0.994990 0.055508 -0.083156 218 189 66
-0.007842 -0.038740 0.022072 -0.780527 0.495374 -0.381288 188 160 1
-0.001835 0.007517 -0.013842 0.993815 0.070741 -0.085603 223 197 59
-0.044517 0.058550 -0.009278 0.058097 -0.994757 0.084162 186 159 1
-0.015467 0.048872 -0.028923 -0.902536 -0.373454 0.214382 193 167 0
-0.000731 -0.005414 -0.006300 0.987383 -0.135604 -0.081768 197 161 0
-0.004165 -0.009294 -0.000661 -0.986991 -0.159352 -0.021329 189 160 2
-0.000737 -0.006243 -0.005747 0.998004 -0.021574 -0.059342 197 161 0
-0.045295 0.058535 -0.008574 0.072482 -0.982984 0.168785 189 159 0
-0.013469 0.052390 -0.033039 0.940079 0.324111 -0.105854 218 182 0
-0.006120 -0.034601 0.017790 -0.990832 0.130983 0.033117 187 166 1
-0.042175 0.058502 -0.011352 0.048501 -0.997401 0.053292 182 152 2
-0.001908 -0.041857 0.018804 0.985194 -0.160542 0.060164 28 125 37
-0.008413 -0.040521 0.023749 -0.947763 -0.235549 0.215088 186 160 0
-0.002201 -0.043410 0.020087 0.980484 -0.195800 0.017710 27 123 38
-0.042955 0.058511 -0.010664 0.056575 -0.995275 0.078904 183 156 0
-0.008627 -0.039638 0.023353 -0.995853 0.090977 0.000671 184 157 0
-0.006356 -0.036200 0.019049 -0.985447 0.158809 -0.060604 184 160 0
-0.043151 0.061226 -0.012283 -0.051322 0.997239 -0.053684 210 187 38
-0.005862 -0.031341 0.015396 -0.986696 0.122281 0.107144 189 167 0
-0.044728 0.061480 -0.011040 -0.080830 0.996009 0.037856 226 185 11
-0.046871 0.059052 -0.007518 0.031959 -0.593539 0.804171 193 164 0
-0.006804 -0.042351 0.023503 -0.274436 -0.600373 0.751157 204 178 0
-0.006540 -0.036978 0.019718 -0.980798 0.171465 -0.092918 185 158 0
-0.001929 0.008374 -0.014347 0.996159 0.065578 -0.058025 218 193 40
-0.000748 -0.009597 -0.003547 0.997763 -0.063399 -0.021208 194 168 5
-0.002008 0.009236 -0.014848 0.997434 0.062207 -0.035439 186 167 3
-0.015068 0.047882 -0.028653 -0.909966 -0.347705 0.225973 197 167 17
-0.005032 0.008563 -0.011695 -0.995940 -0.037788 0.081703 174 158 9
-0.040511 0.057980 -0.012518 -0.055989 -0.715182 0.696692 177 150 4
-0.016826 0.053487 -0.030776 -0.939252 -0.306284 0.154903 193 162 0
-0.014161 0.054278 -0.033687 0.971120 0.205725 0.120849 219 160 52
-0.005831 -0.030516 0.014815 -0.994108 0.107019 -0.017157 189 170 1
-0.000713 -0.007099 -0.005230 0.998551 0.004798 -0.053589 209 164 2
-0.005973 -0.032981 0.016566 -0.989168 0.130715 0.066792 192 166 0
-0.004706 0.005106 -0.009707 -0.984466 -0.143408 0.101300 199 159 5
-0.012433 0.049519 -0.032097 0.941040 0.311733 -0.131399 220 188 1
-0.006214 -0.035413 0.018386 -0.989569 0.144057 0.000528 182 163 0
-0.003856 0.003324 -0.009297 -0.766166 -0.642324 0.020198 189 165 21
-0.006048 -0.033795 0.017166 -0.990399 0.128615 0.050671 187 167 0
-0.005913 -0.032166 0.015970 -0.988061 0.127661 0.086249 190 170 2
-0.001729 -0.041084 0.018105 0.983300 -0.169373 0.066579 42 122 43
