ply
format ascii 1.0
comment Exported by Geomagic
element vertex 699
property float x
property float y
property float z
property float nx
property float ny
property float nz
property uchar red
property uchar green
property uchar blue
end_header
-0.046441 -0.064272 0.001654 -0.018609 -0.987718 0.155132 221 188 1
-0.043500 -0.061819 -0.002607 -0.018860 0.997663 -0.065669 184 157 0
-0.049650 -0.062887 0.003608 -0.066411 -0.204402 0.976632 234 206 2
-0.043304 -0.064541 -0.000988 -0.003353 -0.996820 0.079611 206 176 4
-0.044874 -0.064393 0.000318 0.010150 -0.996494 0.083048 209 181 3
-0.048988 -0.061354 0.001994 -0.022035 0.962651 0.269845 213 189 0
-0.046650 -0.061492 -0.000047 0.013421 0.999194 -0.037832 197 167 1
-0.042010 -0.061862 -0.004069 -0.074862 0.993757 -0.082715 182 156 0
-0.051149 -0.061714 0.002752 -0.036655 0.867203 0.496604 211 184 15
-0.045685 -0.061818 -0.002096 0.016873 0.999515 0.026191 190 162 1
-0.048044 -0.061537 -0.000173 -0.010224 0.978333 -0.206784 196 167 1
-0.048626 -0.064232 0.002114 -0.006649 -0.911819 0.410539 227 198 2
-0.043335 -0.061985 -0.004115 -0.081285 0.991592 -0.100689 178 160 1
-0.043920 -0.064710 -0.001796 0.052804 -0.948736 0.311629 204 177 5
-0.043342 -0.061985 -0.004115 -0.062187 0.991750 -0.112095 178 160 1
-0.042324 -0.065225 -0.002888 -0.045543 -0.932834 0.357418 206 177 20
-0.044120 -0.061947 -0.003443 -0.005500 0.986338 -0.164640 181 156 0
-0.049629 -0.061221 0.001013 0.006335 0.972088 -0.234530 210 177 5
-0.050231 -0.063647 0.003152 -0.046564 -0.815276 0.577198 244 216 0
-0.044908 -0.061821 -0.002823 0.004066 0.995369 -0.096040 187 159 0
-0.049432 -0.063953 0.002638 -0.013690 -0.884287 0.466742 244 216 0
-0.046279 -0.064422 0.000121 0.008279 -0.989916 0.141417 211 180 2
-0.047256 -0.061688 -0.000808 -0.034175 0.963779 -0.264504 192 166 0
-0.044710 -0.064564 -0.001195 0.038941 -0.980236 0.193961 207 179 3
-0.048838 -0.061403 0.000418 0.030630 0.969703 -0.242361 198 167 0
-0.043129 -0.064869 -0.002411 -0.018407 -0.995407 0.093955 205 176 7
-0.047066 -0.064365 0.000779 -0.013201 -0.996626 0.081015 215 181 2
-0.050404 -0.061274 0.001731 -0.004480 0.950673 0.310163 218 205 0
-0.047842 -0.064317 0.001435 0.047809 -0.994739 0.090606 218 187 3
-0.046469 -0.061830 -0.001438 -0.015507 0.992522 -0.121076 193 163 1
-0.045498 -0.064483 -0.000560 0.069253 -0.979124 0.191102 208 179 3
-0.051332 -0.062758 0.003517 -0.120285 -0.003670 0.992732 211 184 15
-0.052314 -0.061880 0.002955 -0.029752 0.859807 0.509751 181 159 20
-0.049248 -0.064481 0.001393 0.043311 -0.992242 0.116531 213 186 2
-0.047867 -0.061833 -0.001605 0.040429 0.998914 0.023171 188 160 0
-0.046896 -0.064708 -0.000602 -0.001715 -0.969471 0.245200 206 179 2
-0.045317 -0.064837 -0.001936 -0.033368 -0.957540 0.286361 204 179 3
-0.052451 -0.063181 0.003354 -0.084211 -0.360256 0.929045 250 233 2
-0.051639 -0.063693 0.002965 -0.051082 -0.803919 0.592540 250 233 2
-0.048467 -0.064418 0.000595 0.050604 -0.997512 0.049069 211 182 3
-0.046109 -0.064764 -0.001293 0.116324 -0.979395 0.165089 204 179 2
-0.050836 -0.064032 0.002455 -0.017119 -0.862036 0.506558 251 223 5
-0.045526 -0.061996 -0.003647 -0.017812 0.978457 -0.205679 182 156 0
-0.043773 -0.064685 -0.003443 0.078381 -0.996711 -0.020581 203 177 15
-0.044211 -0.064854 -0.002940 0.334851 -0.940391 -0.059493 203 177 15
-0.049451 -0.061619 -0.000382 -0.008947 0.962953 -0.269519 198 161 0
-0.046314 -0.061883 -0.003018 -0.022660 0.977460 -0.209899 178 158 12
-0.050243 -0.061448 0.000212 -0.010545 0.959172 -0.282626 196 166 0
-0.044538 -0.065009 -0.002552 0.232052 -0.950688 0.205777 201 181 3
-0.048661 -0.061770 -0.000996 0.006051 0.992997 -0.117979 196 160 0
-0.051034 -0.061288 0.000809 -0.011700 0.973667 -0.227674 202 173 0
-0.051815 -0.061227 0.001459 -0.007659 0.999970 -0.000966 215 187 2
-0.047107 -0.061775 -0.002427 -0.001003 0.997479 -0.070954 186 161 1
-0.047676 -0.064427 -0.000169 -0.002586 -0.985434 0.170038 210 183 3
-0.050028 -0.064347 0.001864 0.014237 -0.902400 0.430663 229 196 2
-0.053479 -0.062018 0.003129 -0.081779 0.694445 0.714883 181 159 20
-0.052743 -0.061393 0.001988 -0.032504 0.927102 0.373399 181 159 20
-0.050064 -0.061768 -0.001172 0.007190 0.999811 0.018072 192 161 0
-0.050662 -0.064486 0.001149 0.020016 -0.998880 -0.042871 215 186 1
-0.048504 -0.061779 -0.002576 0.001502 0.984395 -0.175968 186 159 0
-0.047507 -0.064773 -0.001502 -0.111817 -0.983361 0.143169 207 178 2
-0.049085 -0.064515 -0.000268 0.010054 -0.984988 0.172328 208 181 2
-0.048314 -0.064608 -0.000911 -0.003199 -0.983985 0.178225 209 180 2
-0.046714 -0.064967 -0.002110 0.054247 -0.990704 0.124757 204 179 1
-0.047718 -0.061957 -0.003199 -0.011266 0.971011 -0.238772 187 157 5
-0.051646 -0.061523 0.000033 -0.012352 0.953915 -0.299821 197 165 0
-0.052439 -0.061335 0.000619 0.000923 0.971373 -0.237557 202 173 1
-0.053041 -0.063755 0.002753 -0.036746 -0.795239 0.605181 255 239 0
-0.045121 -0.065547 -0.003162 0.035532 -0.912840 0.406769 102 91 2
-0.046930 -0.062083 -0.003828 -0.021548 0.977604 -0.209347 183 156 1
-0.053228 -0.061217 0.001243 0.004775 0.999362 0.035405 217 194 10
-0.045732 -0.064986 -0.002988 -0.472928 -0.795717 0.378382 210 178 9
-0.052242 -0.064102 0.002262 -0.041645 -0.847697 0.528843 248 227 1
-0.053853 -0.063352 0.003209 -0.069825 -0.363285 0.929058 255 239 0
-0.050856 -0.061703 -0.000576 -0.008080 0.975097 -0.221631 194 162 0
-0.049880 -0.064437 0.000350 -0.010099 -0.999933 0.005657 210 181 0
-0.046249 -0.064884 -0.002621 0.111160 -0.991042 0.074016 210 178 9
-0.051416 -0.064486 0.001732 -0.000940 -0.939485 0.342587 232 195 0
-0.049308 -0.061682 -0.002033 0.014844 0.998629 -0.050203 192 160 0
-0.054049 -0.061461 0.001995 -0.047256 0.888504 0.456429 127 107 47
-0.054861 -0.062058 0.003006 -0.083098 0.404803 0.910620 127 107 47
-0.056074 -0.062120 0.002991 -0.056203 0.556816 0.828732 118 101 35
-0.052059 -0.064539 0.000936 0.018885 -0.999015 -0.040155 217 186 1
-0.052257 -0.061719 -0.000753 0.025037 0.999670 0.005884 193 164 0
-0.049119 -0.062023 -0.003369 0.014066 0.990891 -0.133927 181 158 0
-0.054641 -0.061194 0.001022 -0.017554 0.993289 -0.114318 221 192 10
-0.049692 -0.064770 -0.001056 0.026612 -0.964298 0.263478 208 181 1
-0.053049 -0.061610 -0.000141 -0.019593 0.954113 -0.298804 193 168 1
-0.053841 -0.061432 0.000447 -0.022494 0.928905 -0.369634 200 172 1
-0.049912 -0.061883 -0.002777 -0.018781 0.965530 -0.259612 185 156 0
-0.050705 -0.061715 -0.002179 -0.000921 0.991519 -0.129962 190 159 0
-0.054451 -0.063811 0.002556 -0.041689 -0.844417 0.534062 252 228 0
-0.046571 -0.064990 -0.003726 -0.005056 -0.987225 0.159256 212 182 5
-0.050511 -0.064457 -0.000548 -0.050679 -0.975920 0.212161 211 181 0
-0.048338 -0.062118 -0.004039 0.091694 0.995179 -0.034810 183 156 8
-0.047327 -0.065099 -0.002979 0.165856 -0.985726 0.028918 202 181 9
-0.053647 -0.064157 0.002063 -0.039379 -0.850271 0.524870 242 218 1
-0.055257 -0.063446 0.003034 -0.071111 -0.129203 0.989065 252 228 0
-0.048917 -0.064776 -0.001778 0.172560 -0.976862 0.126350 205 178 1
-0.055400 -0.061456 0.001838 -0.042042 0.902167 0.429334 118 101 35
-0.048149 -0.064834 -0.002441 -0.139791 -0.973827 0.179214 209 179 1
-0.052846 -0.064504 0.001547 -0.027202 -0.927288 0.373357 228 198 0
-0.051293 -0.064415 0.000096 0.002817 -0.998140 -0.060890 217 182 2
-0.051490 -0.061703 -0.001525 0.031712 0.998774 0.038024 194 158 0
-0.057482 -0.062301 0.002913 -0.086860 -0.136098 0.986880 132 109 42
-0.050290 -0.064972 -0.001827 -0.124266 -0.987437 0.097595 203 178 0
-0.053466 -0.064536 0.000688 0.001380 -0.996032 -0.088989 215 185 0
-0.054454 -0.061670 -0.000337 0.020218 0.997616 -0.065986 197 170 0
-0.055242 -0.061537 0.000281 -0.009139 0.932331 -0.361492 202 172 0
-0.056656 -0.063503 0.002844 -0.106233 -0.608493 0.786416 241 220 3
-0.052897 -0.061661 -0.001741 0.004701 0.993801 -0.111074 189 161 0
-0.050535 -0.061989 -0.003641 -0.013327 0.999843 -0.011686 182 157 1
-0.051128 -0.064725 -0.001306 -0.031980 -0.977958 0.206341 207 181 0
-0.055042 -0.064217 0.001865 -0.045729 -0.856628 0.513903 239 211 0
-0.055849 -0.063867 0.002354 -0.050214 -0.844418 0.533325 241 220 3
-0.051318 -0.061951 -0.002972 0.004748 0.984622 -0.174637 177 158 0
-0.048768 -0.064897 -0.003316 0.104430 -0.978987 0.175156 202 180 15
-0.049762 -0.061924 -0.004388 0.017541 0.999283 0.033578 182 154 0
-0.047964 -0.065227 -0.003818 -0.070936 -0.982446 0.172532 181 170 10
-0.053678 -0.061647 -0.001063 0.047913 0.997026 0.060360 195 161 1
-0.054250 -0.064540 0.001358 -0.019761 -0.979429 0.200821 226 194 0
-0.052110 -0.061791 -0.002377 -0.005108 0.973985 -0.226557 184 158 0
-0.051913 -0.064532 -0.000748 0.024237 -0.931138 0.363860 208 180 0
-0.056041 -0.061289 0.000803 -0.027559 0.974462 -0.222851 216 189 0
-0.056815 -0.061404 0.001559 -0.043705 0.981920 0.184182 211 190 2
-0.049536 -0.065039 -0.002566 0.177324 -0.954432 0.240031 203 176 8
-0.052703 -0.064377 -0.000186 0.014918 -0.994357 -0.105032 215 182 1
-0.057749 -0.061660 0.002137 -0.031011 0.919161 0.392659 133 106 36
-0.058765 -0.062442 0.002849 -0.121500 0.390965 0.912351 133 106 36
-0.055648 -0.064523 0.001214 -0.045422 -0.997195 0.059491 222 192 0
-0.056635 -0.061597 0.000123 0.093094 0.986415 -0.135343 199 171 0
-0.050939 -0.064847 -0.002854 -0.111801 -0.916018 0.385242 205 178 0
-0.057458 -0.061365 0.000676 0.066223 0.997735 -0.011834 210 188 1
-0.054113 -0.064429 -0.000310 -0.002948 -0.991644 0.128968 209 183 0
-0.052487 -0.064858 -0.001486 0.057218 -0.991929 0.113158 208 180 0
-0.051768 -0.064636 -0.002278 0.026450 -0.990418 0.135542 202 178 0
-0.053513 -0.061853 -0.002555 -0.020893 0.977165 -0.211452 185 159 0
-0.052727 -0.061962 -0.003197 0.011830 0.992059 -0.125218 184 156 0
-0.057260 -0.063904 0.002144 -0.053544 -0.841589 0.537458 241 219 1
-0.050131 -0.065549 -0.003160 0.048802 -0.822844 0.566167 203 176 8
-0.051162 -0.062057 -0.004541 -0.030751 0.997978 -0.055627 177 155 0
-0.049995 -0.065491 -0.003320 0.492664 -0.845367 0.206486 209 189 59
-0.053312 -0.064641 -0.000910 0.004855 -0.936941 0.349455 209 180 0
-0.055092 -0.061607 -0.001322 0.001187 0.982838 -0.184470 191 164 0
-0.054304 -0.061731 -0.001946 -0.019414 0.974677 -0.222772 186 163 0
-0.058225 -0.061414 0.001355 0.009776 0.978136 0.207735 220 188 0
-0.058072 -0.063527 0.002604 -0.089682 -0.507867 0.856754 241 219 1
-0.054888 -0.064456 0.000362 -0.034488 -0.994732 -0.096538 215 184 0
-0.056452 -0.064254 0.001626 -0.042370 -0.864578 0.500708 238 212 0
-0.051950 -0.062002 -0.003904 -0.001337 0.997068 -0.076505 182 157 0
-0.055883 -0.061548 -0.000702 0.041479 0.997998 0.047759 195 168 1
-0.059016 -0.061717 0.002173 -0.087463 0.808710 0.581669 133 106 36
-0.057107 -0.064409 0.000877 -0.029598 -0.999537 0.007031 221 192 3
-0.058873 -0.061148 0.000294 0.044772 0.998982 -0.005437 212 184 3
-0.054140 -0.061877 -0.003468 0.044042 0.992671 -0.112537 183 157 0
-0.054718 -0.064667 -0.001115 -0.024313 -0.967076 0.253320 206 180 0
-0.057287 -0.061491 -0.000913 0.049137 0.987470 -0.149957 191 166 0
-0.058079 -0.061311 -0.000324 0.096297 0.980702 -0.170151 196 167 0
-0.054918 -0.061933 -0.002745 0.007555 0.995765 -0.091622 184 159 0
-0.055708 -0.061799 -0.002129 -0.012520 0.972275 -0.233502 189 159 0
-0.051563 -0.065235 -0.003580 -0.074472 -0.935478 0.345450 207 180 20
-0.056498 -0.061654 -0.001522 -0.005619 0.967811 -0.251616 191 162 0
-0.058670 -0.063947 0.001938 -0.048155 -0.830275 0.555270 242 220 4
-0.055514 -0.064483 -0.000536 -0.032840 -0.974807 0.220618 209 181 0
-0.052571 -0.062091 -0.004754 -0.022256 0.996615 -0.079134 180 154 0
-0.053356 -0.062022 -0.004105 0.014117 0.990575 -0.136240 179 157 0
-0.057864 -0.064320 0.001450 -0.036153 -0.936158 0.349714 239 212 3
-0.053158 -0.064861 -0.002411 0.027674 -0.964337 0.263224 205 179 2
-0.059474 -0.063596 0.002404 -0.041622 -0.828277 0.558771 242 220 4
-0.053936 -0.064808 -0.001761 -0.009324 -0.992960 0.118088 204 179 0
-0.056300 -0.064378 0.000066 -0.021493 -0.999713 0.010605 220 185 1
-0.060474 -0.062608 0.002615 -0.166134 0.159429 0.973130 151 137 23
-0.059649 -0.061313 0.001018 -0.016814 0.940638 0.338994 224 195 4
-0.060378 -0.061724 0.001942 -0.153015 0.635513 0.756776 151 137 23
-0.052363 -0.065196 -0.002979 0.056020 -0.943384 0.326938 195 180 6
-0.052831 -0.062109 -0.005130 -0.038592 0.999038 -0.020833 180 154 0
-0.061562 -0.061670 0.001633 -0.084495 0.792606 0.603852 209 191 6
-0.061783 -0.062591 0.002367 -0.103613 0.292410 0.950663 209 191 6
-0.057111 -0.061867 -0.002313 0.031544 0.998947 -0.033287 186 161 0
-0.053754 -0.065216 -0.003114 -0.024978 -0.970758 0.238755 204 180 0
-0.057903 -0.061714 -0.001712 -0.006739 0.964266 -0.264851 189 160 0
-0.060070 -0.064002 0.001737 -0.055292 -0.844768 0.532270 246 226 1
-0.054763 -0.062031 -0.004321 0.020801 0.983379 -0.180370 184 153 0
-0.056343 -0.061736 -0.003101 0.039119 0.995624 -0.084866 186 160 0
-0.052979 -0.065154 -0.003861 -0.006595 -0.998923 -0.045924 206 180 0
-0.055341 -0.064842 -0.001951 0.005071 -0.967871 0.251397 205 179 0
-0.053975 -0.062165 -0.004942 -0.003436 0.991983 -0.126324 184 154 0
-0.058696 -0.061551 -0.001119 -0.005417 0.960088 -0.279648 192 164 0
-0.058490 -0.064395 0.000572 0.010186 -0.997377 0.071669 223 189 1
-0.060880 -0.063647 0.002218 -0.092776 -0.678219 0.728979 246 226 1
-0.059487 -0.061386 -0.000522 -0.014255 0.963175 -0.268496 196 169 0
-0.060277 -0.061242 0.000085 -0.021392 0.972060 -0.233757 201 174 1
-0.056930 -0.064466 -0.000788 -0.045508 -0.975245 0.216393 206 181 0
-0.056136 -0.064656 -0.001376 -0.042403 -0.966173 0.254384 206 180 0
-0.055556 -0.061896 -0.003720 0.014089 0.977790 -0.209110 185 154 0
-0.054546 -0.064898 -0.002651 0.046570 -0.957862 0.283427 204 179 0
-0.057712 -0.064415 -0.000142 0.024800 -0.999508 0.019179 213 181 0
-0.059268 -0.064361 0.001211 -0.004171 -0.980241 0.197762 239 209 0
-0.061064 -0.061155 0.000664 -0.032436 0.987751 0.152632 225 193 5
-0.062575 -0.062513 0.002299 -0.013923 0.335367 0.941985 236 212 4
-0.062226 -0.061428 0.001135 -0.066237 0.923441 0.377981 222 195 9
-0.055132 -0.062099 -0.004834 0.032851 0.995332 -0.090749 184 153 0
-0.062782 -0.062035 0.001831 -0.051934 0.727630 0.684001 236 212 4
-0.059120 -0.064479 -0.000267 -0.010297 -0.999946 -0.000779 216 180 1
-0.062300 -0.063628 0.002013 -0.099968 -0.548737 0.829997 245 226 1
-0.060098 -0.061615 -0.001302 -0.007616 0.962061 -0.272728 190 161 0
-0.059308 -0.061781 -0.001903 0.037415 0.999234 -0.011425 189 162 0
-0.056172 -0.062058 -0.004535 0.006876 0.995338 -0.096210 182 154 0
-0.060682 -0.064331 0.001007 -0.053434 -0.920751 0.386474 236 202 3
-0.056961 -0.061929 -0.003918 0.005118 0.972619 -0.232347 185 157 0
-0.060891 -0.061455 -0.000708 -0.011237 0.965911 -0.258631 195 168 0
-0.054389 -0.065158 -0.004091 0.045083 -0.998362 -0.035224 204 182 6
-0.057542 -0.064667 -0.001592 -0.018714 -0.953201 0.301758 206 178 0
-0.061487 -0.064031 0.001520 -0.060202 -0.850829 0.521981 245 226 1
-0.056752 -0.064873 -0.002170 -0.048230 -0.935909 0.348925 206 178 1
-0.059885 -0.064450 0.000349 0.021077 -0.999443 -0.025895 220 187 0
-0.055944 -0.065174 -0.002705 0.018935 -0.971688 0.235507 202 178 0
-0.057754 -0.061772 -0.003328 0.006448 0.967953 -0.251045 188 157 0
-0.055176 -0.065220 -0.003366 0.049159 -0.980522 0.190156 203 177 1
-0.061684 -0.061315 -0.000113 -0.025865 0.978616 -0.204060 219 187 0
-0.058342 -0.064448 -0.001076 -0.022123 -0.974241 0.224421 209 178 0
-0.058552 -0.061624 -0.002769 0.049675 0.997482 0.050610 188 159 0
-0.063245 -0.062867 0.002164 -0.054948 -0.326055 0.943753 236 212 4
-0.062545 -0.061256 0.000462 -0.054680 0.998389 -0.015097 219 196 1
-0.063500 -0.061525 0.001100 -0.068746 0.870100 0.488056 219 196 1
-0.062872 -0.064076 0.001381 -0.039190 -0.819776 0.571342 245 224 3
-0.061305 -0.064571 0.000268 -0.008852 -0.999634 0.025560 219 188 0
-0.063695 -0.063698 0.001826 -0.052161 -0.601737 0.796990 245 224 3
-0.057578 -0.062064 -0.004740 -0.016657 0.999853 -0.004106 181 154 0
-0.061500 -0.061675 -0.001488 0.030595 0.993800 -0.106889 191 165 0
-0.062293 -0.061518 -0.000884 0.015274 0.976920 -0.213058 197 170 1
-0.062086 -0.064342 0.000785 -0.048000 -0.941096 0.334715 227 197 1
-0.058365 -0.061986 -0.004109 0.013200 0.986374 -0.163988 183 157 0
-0.055788 -0.065309 -0.004233 -0.037390 -0.996760 0.071211 208 183 15
-0.056810 -0.061948 -0.005536 -0.033660 0.996386 0.077990 178 154 0
-0.058938 -0.064768 -0.001768 -0.022401 -0.907051 0.420423 207 179 0
-0.063087 -0.061386 -0.000285 0.015335 0.989424 -0.144240 203 174 0
-0.059158 -0.061823 -0.003520 -0.004779 0.960698 -0.277552 183 157 0
-0.059742 -0.064469 -0.001251 -0.033628 -0.919529 0.391581 209 180 0
-0.058155 -0.064901 -0.002389 -0.006703 -0.961982 0.273030 204 177 0
-0.059951 -0.061654 -0.002925 0.003672 0.966929 -0.255020 186 160 0
-0.057362 -0.065130 -0.002954 -0.058929 -0.968417 0.242273 203 176 0
-0.060548 -0.064303 -0.000646 -0.007233 -0.999963 0.004737 211 183 0
-0.060734 -0.061613 -0.002256 0.049562 0.987128 0.152059 193 161 1
-0.064867 -0.062074 0.001744 -0.018360 0.817029 0.576305 223 197 1
-0.056585 -0.065153 -0.003646 -0.085037 -0.996216 0.017987 207 177 2
-0.063896 -0.061317 0.000278 -0.014532 0.995141 0.097378 213 187 1
-0.064960 -0.063112 0.002056 -0.002329 -0.377638 0.925951 240 218 13
-0.064843 -0.061473 0.000816 -0.022262 0.918963 0.393716 223 197 1
-0.064217 -0.061359 -0.000491 0.051286 0.996143 -0.071198 213 187 1
-0.064314 -0.064085 0.001222 -0.059177 -0.865601 0.497226 245 224 8
-0.062142 -0.061534 -0.002483 0.018804 0.995265 -0.095366 187 162 0
-0.062708 -0.064431 -0.000067 -0.102757 -0.994699 -0.003827 216 187 0
-0.058765 -0.065092 -0.003165 -0.036656 -0.997248 0.064441 206 179 0
-0.059774 -0.061959 -0.004345 0.039007 0.997258 -0.062886 190 152 0
-0.059565 -0.065054 -0.002500 -0.008186 -0.974766 0.223079 205 179 0
-0.063496 -0.064348 0.000555 -0.082743 -0.991726 0.098154 228 201 1
-0.061152 -0.064502 -0.001450 -0.037766 -0.932269 0.359788 207 178 0
-0.060562 -0.061893 -0.003701 0.029618 0.991731 -0.124868 184 158 0
-0.063708 -0.061471 -0.001161 0.065617 0.993597 -0.091973 195 164 0
-0.060349 -0.064807 -0.001971 -0.037355 -0.901285 0.431614 204 178 0
-0.061354 -0.061720 -0.003110 -0.008286 0.956103 -0.292912 183 159 0
-0.065110 -0.063749 0.001594 -0.059579 -0.805290 0.589880 245 224 8
-0.057209 -0.065160 -0.004555 -0.034270 -0.985312 0.167295 211 184 23
-0.058209 -0.062103 -0.005677 -0.028837 0.997510 -0.064348 181 152 0
-0.066741 -0.062578 0.002281 -0.023864 0.070660 0.997215 187 167 36
-0.061943 -0.064324 -0.000869 -0.001019 -0.997283 0.073655 208 181 0
-0.057997 -0.065047 -0.003939 0.009402 -0.863458 0.504332 204 179 1
-0.066019 -0.061530 0.000907 0.012627 0.870354 0.492265 228 197 0
-0.059000 -0.062041 -0.005046 0.023351 0.994871 -0.098412 182 154 0
-0.062934 -0.061528 -0.001864 0.056676 0.998219 0.018618 193 161 0
-0.065639 -0.061355 0.000411 0.007055 0.984534 0.175051 221 193 1
-0.065198 -0.061311 -0.000146 0.026097 0.999546 0.015090 204 179 0
-0.066197 -0.063432 0.001924 -0.033006 -0.592528 0.804873 243 228 6
-0.067020 -0.061794 0.001437 0.017699 0.835296 0.549515 187 167 36
-0.065134 -0.061355 -0.001244 0.056139 0.991140 -0.120378 195 171 0
-0.066519 -0.061285 -0.000060 0.033795 0.994018 0.103856 213 186 0
-0.065871 -0.063995 0.001136 -0.072429 -0.960392 0.269072 243 228 6
-0.064907 -0.064245 0.000396 -0.043296 -0.990966 0.126930 231 202 7
-0.067256 -0.061378 0.000596 0.017060 0.958240 0.285455 228 197 0
-0.067502 -0.063264 0.001974 -0.083217 -0.615045 0.784088 239 217 2
-0.060968 -0.064950 -0.002797 -0.060876 -0.998069 -0.012364 202 177 0
-0.062758 -0.061788 -0.003298 0.030094 0.992486 -0.118603 185 158 0
-0.062565 -0.064513 -0.001674 -0.059794 -0.928920 0.365419 205 180 0
-0.059127 -0.065467 -0.004130 -0.025187 -0.646976 0.762094 211 187 29
-0.059389 -0.065256 -0.004037 -0.075627 -0.773655 0.629077 206 179 0
-0.059617 -0.062144 -0.005887 0.006675 0.991437 -0.130414 181 153 0
-0.061751 -0.064855 -0.002188 -0.064436 -0.954668 0.290617 203 177 0
-0.060405 -0.062032 -0.005258 0.009114 0.982972 -0.183531 182 152 0
-0.063552 -0.061623 -0.002708 -0.008364 0.966080 -0.258110 188 159 0
-0.063348 -0.064355 -0.001088 -0.045851 -0.998701 0.022188 206 181 0
-0.061195 -0.061902 -0.004643 0.048371 0.991537 -0.120473 186 156 0
-0.061982 -0.061821 -0.003998 0.065247 0.997773 -0.013839 183 157 0
-0.064345 -0.061481 -0.002105 0.023894 0.990511 -0.135337 188 163 0
-0.064142 -0.064299 -0.000439 -0.043432 -0.998683 0.027322 215 184 0
-0.060216 -0.064913 -0.003636 -0.036099 -0.985955 0.163061 200 176 0
-0.068252 -0.062759 0.002114 -0.135566 -0.391978 0.909932 182 156 57
-0.066963 -0.063707 0.001485 -0.069379 -0.793461 0.604653 239 217 2
-0.066144 -0.061268 -0.000866 0.049790 0.998757 -0.002258 199 173 0
-0.068663 -0.062046 0.001761 -0.070429 0.613560 0.786501 177 152 43
-0.059981 -0.062210 -0.006391 -0.018877 0.987995 -0.153324 181 153 0
-0.068680 -0.061349 0.000624 0.050158 0.955746 0.289887 213 188 8
-0.068013 -0.061185 -0.000286 0.037153 0.997263 0.063936 216 190 0
-0.068848 -0.063261 0.001753 -0.122433 -0.686525 0.716723 239 222 18
-0.066359 -0.064250 0.000121 -0.034892 -0.982557 0.182661 223 194 1
-0.060795 -0.065244 -0.004210 -0.043584 -0.913435 0.404644 206 178 4
-0.067231 -0.064007 0.000728 -0.059185 -0.949178 0.309124 244 226 19
-0.068053 -0.063747 0.001273 -0.080614 -0.850796 0.519276 239 222 18
-0.061593 -0.064949 -0.003737 -0.009771 -0.960565 0.277884 203 178 0
-0.064174 -0.061687 -0.003581 0.068017 0.996490 0.048795 187 157 0
-0.065747 -0.061507 -0.002298 0.018442 0.978971 -0.203161 189 161 0
-0.063976 -0.064478 -0.001928 -0.072775 -0.953975 0.290920 205 177 0
-0.064761 -0.064377 -0.001293 -0.016599 -0.995081 0.097659 208 180 0
-0.065546 -0.064314 -0.000635 -0.009445 -0.997032 0.076407 215 182 0
-0.060009 -0.065446 -0.004850 -0.083887 -0.939306 0.332666 214 186 38
-0.061813 -0.062044 -0.005478 0.031897 0.976150 -0.214738 181 153 2
-0.061021 -0.062223 -0.006070 -0.013081 0.975492 -0.219649 180 153 2
-0.063177 -0.064795 -0.002442 -0.069162 -0.972340 0.223098 202 176 0
-0.062386 -0.064896 -0.003083 -0.018470 -0.995692 0.090871 203 177 0
-0.064958 -0.061677 -0.002907 0.036456 0.994870 -0.094363 187 160 0
-0.066539 -0.061362 -0.001699 0.029036 0.977573 -0.208587 193 164 0
-0.063397 -0.061716 -0.004283 0.049744 0.991941 -0.116527 184 157 0
-0.069601 -0.062662 0.001895 -0.200782 -0.003722 0.979630 177 152 43
-0.062607 -0.061888 -0.004885 0.033085 0.975475 -0.217611 178 155 0
-0.067333 -0.061210 -0.001100 0.025059 0.991557 -0.127228 201 171 0
-0.069860 -0.061404 0.000972 -0.002567 0.807018 0.590521 225 199 2
-0.070315 -0.061701 0.001294 -0.074467 0.628670 0.774099 206 180 17
-0.069494 -0.061160 -0.000559 0.023480 0.994978 -0.097304 208 180 0
-0.070243 -0.063295 0.001492 -0.135532 -0.563519 0.814909 248 228 58
-0.071057 -0.062281 0.001523 -0.098024 0.286770 0.952971 206 180 17
-0.069382 -0.063766 0.001000 -0.097999 -0.798992 0.593303 248 228 58
-0.067734 -0.064268 -0.000170 -0.028972 -0.984060 0.175456 219 190 4
-0.067944 -0.061381 -0.001900 0.020853 0.975593 -0.218596 194 166 0
-0.066373 -0.061559 -0.003192 0.068353 0.995330 0.068167 188 161 0
-0.063003 -0.065028 -0.003924 0.032992 -0.981416 0.189033 204 177 0
-0.064010 -0.061903 -0.005086 0.041502 0.989945 -0.135229 185 155 0
-0.066171 -0.064375 -0.001523 -0.019604 -0.995810 0.089321 210 179 2
-0.067154 -0.061547 -0.002510 0.044412 0.994386 -0.096042 192 163 0
-0.063223 -0.062045 -0.005710 0.080756 0.987894 -0.132454 178 153 2
-0.068738 -0.061241 -0.001299 0.013311 0.991315 -0.130834 201 168 0
-0.061412 -0.065536 -0.005029 -0.021154 -0.921185 0.388549 208 190 47
-0.062213 -0.065253 -0.004500 -0.078676 -0.888749 0.451593 209 184 15
-0.070360 -0.061073 0.000040 0.057009 0.997338 0.045468 226 199 0
-0.064581 -0.064750 -0.002717 -0.053573 -0.941797 0.331884 205 176 5
-0.068527 -0.064069 0.000370 -0.003677 -0.960601 0.277905 241 218 36
-0.064807 -0.061740 -0.004505 0.015807 0.964800 -0.262509 183 155 0
-0.065600 -0.061559 -0.003922 0.039289 0.992799 -0.113167 183 158 0
-0.066959 -0.064311 -0.000888 -0.020523 -0.997917 0.061152 216 182 0
-0.063801 -0.064891 -0.003338 0.002407 -0.975346 0.220670 203 177 0
-0.065401 -0.064442 -0.002242 -0.037019 -0.968060 0.247971 208 177 4
-0.071138 -0.061213 0.000656 0.019787 0.924173 0.381460 224 198 0
-0.071746 -0.061448 0.000976 -0.018050 0.721972 0.691687 186 163 48
-0.071964 -0.062840 0.001496 -0.141887 -0.352464 0.925006 218 190 29
-0.072600 -0.062227 0.001479 -0.104421 0.148129 0.983440 186 163 48
-0.072732 -0.061707 0.001203 -0.012359 0.588873 0.808131 204 191 14
-0.069943 -0.064196 0.000299 0.005165 -0.932982 0.359885 236 208 45
-0.066791 -0.064462 -0.002357 -0.005366 -0.946147 0.323693 204 177 2
-0.069347 -0.061379 -0.002109 0.055014 0.995065 -0.082588 195 164 0
-0.065421 -0.061867 -0.005330 0.041033 0.995687 -0.083200 179 154 0
-0.070141 -0.061250 -0.001509 0.037425 0.992141 -0.119400 200 169 0
-0.064406 -0.065150 -0.004078 0.043783 -0.971315 0.233727 203 181 1
-0.068366 -0.064278 -0.001111 -0.033483 -0.999420 0.006124 211 181 2
-0.065201 -0.064988 -0.003491 0.034537 -0.947442 0.318057 203 176 0
-0.062817 -0.065616 -0.005214 -0.071703 -0.863643 0.498977 206 192 47
-0.070740 -0.063833 0.000710 -0.079467 -0.796695 0.599134 244 232 122
-0.063859 -0.061970 -0.006686 0.059145 0.997160 -0.046631 180 152 4
-0.063626 -0.065197 -0.004765 -0.000290 -0.991813 0.127696 210 182 15
-0.065997 -0.064767 -0.002926 -0.001086 -0.897281 0.441458 206 175 5
-0.071546 -0.063407 0.001149 -0.120286 -0.724014 0.679216 244 232 122
-0.067004 -0.061605 -0.004112 0.009739 0.965148 -0.261524 182 158 0
-0.066211 -0.061781 -0.004706 0.025673 0.982791 -0.182928 180 157 0
-0.067795 -0.061441 -0.003513 0.036564 0.993911 -0.103947 187 159 0
-0.070935 -0.061139 -0.000903 0.070797 0.988684 -0.132253 210 175 0
-0.064643 -0.061932 -0.006017 0.016062 0.999055 -0.040395 184 154 0
-0.067586 -0.064346 -0.001788 -0.043344 -0.995607 0.083001 209 179 1
-0.071732 -0.060947 -0.000337 0.053302 0.998158 0.028970 217 192 0
-0.069146 -0.064277 -0.000469 0.019060 -0.996328 0.083476 219 187 3
-0.068585 -0.061419 -0.002865 0.070080 0.996934 0.034820 191 163 0
-0.072478 -0.061059 0.000363 0.035191 0.936390 0.349194 228 200 0
-0.072972 -0.061251 0.000769 0.005737 0.796243 0.604950 204 191 14
-0.073502 -0.061860 0.001266 -0.113071 0.386886 0.915169 204 191 14
-0.073358 -0.061003 0.000348 0.038064 0.921051 0.387576 226 201 1
-0.073800 -0.061335 0.000839 -0.047614 0.731671 0.679993 217 196 0
-0.073512 -0.062467 0.001264 -0.234378 -0.300139 0.924653 200 169 58
-0.072957 -0.060916 -0.000289 0.076839 0.996190 0.041245 219 194 0
-0.073515 -0.060878 0.000021 0.037394 0.985051 0.168150 226 201 1
-0.072769 -0.063379 0.000926 -0.178068 -0.647486 0.740982 240 230 146
-0.064988 -0.065199 -0.004925 0.009594 -0.990208 -0.139274 207 191 27
-0.072330 -0.061092 -0.001104 0.075417 0.991338 -0.107520 207 179 0
-0.070546 -0.064380 -0.000549 0.042447 -0.999076 0.006693 212 186 0
-0.068404 -0.061631 -0.004302 0.050836 0.986104 -0.158161 183 160 0
-0.067621 -0.061744 -0.004944 0.044745 0.994189 -0.097913 185 157 0
-0.066600 -0.065124 -0.003637 0.052445 -0.936618 0.346407 204 174 1
-0.068194 -0.064615 -0.002551 -0.014036 -0.862477 0.505901 207 176 0
-0.072143 -0.063856 0.000486 -0.117118 -0.775351 0.620577 240 230 146
-0.065267 -0.062005 -0.006897 -0.070406 0.972553 -0.221777 176 151 11
-0.065038 -0.065176 -0.005010 0.033116 -0.961451 -0.272973 207 191 27
-0.071331 -0.064295 0.000048 -0.056309 -0.866530 0.495939 228 199 10
-0.069993 -0.061331 -0.003111 0.045050 0.994912 -0.090125 191 160 0
-0.065813 -0.065237 -0.004281 0.056310 -0.998338 -0.012299 205 181 0
-0.067392 -0.064933 -0.003066 0.025007 -0.889113 0.457004 202 175 1
-0.066053 -0.061918 -0.006261 0.028873 0.987628 -0.154136 180 153 1
-0.068992 -0.064322 -0.002041 0.033668 -0.921212 0.387601 207 180 2
-0.071564 -0.061191 -0.001807 0.064522 0.995078 -0.075210 199 171 0
-0.066841 -0.061831 -0.005618 0.040190 0.996302 -0.075944 178 155 2
-0.070778 -0.061275 -0.002457 0.068656 0.997351 -0.024025 191 163 0
-0.069204 -0.061491 -0.003726 0.032492 0.985488 -0.166608 187 159 0
-0.069788 -0.064187 -0.001438 0.011582 -0.998431 0.054781 207 181 0
-0.074242 -0.060964 0.000204 -0.032902 0.942350 0.333008 225 199 1
-0.074643 -0.061730 0.001010 -0.144854 0.353349 0.924209 221 200 19
-0.073797 -0.060870 -0.000338 -0.000237 0.999953 0.009700 216 192 0
-0.074840 -0.061207 0.000644 -0.050369 0.748401 0.661332 217 196 0
-0.074809 -0.062323 0.000964 -0.246426 -0.352853 0.902645 221 200 19
-0.073487 -0.063771 0.000379 -0.222051 -0.741534 0.633105 234 202 19
-0.074321 -0.063086 0.000656 -0.263416 -0.584951 0.767102 245 231 106
-0.073878 -0.060950 -0.001267 0.053115 0.994626 -0.088870 205 179 0
-0.071933 -0.064384 -0.000783 0.024552 -0.999459 -0.021862 212 179 0
-0.070606 -0.061486 -0.003927 0.046285 0.996691 -0.066817 189 159 0
-0.071399 -0.061342 -0.003326 0.027384 0.978034 -0.206640 190 161 0
-0.068792 -0.065003 -0.003249 -0.037567 -0.891644 0.451177 203 175 1
-0.070391 -0.064466 -0.002172 0.020958 -0.920999 0.389001 205 180 0
-0.068001 -0.065259 -0.003796 0.018242 -0.928451 0.371007 205 176 5
-0.066875 -0.065262 -0.004803 0.115712 -0.975123 -0.189061 212 195 44
-0.067210 -0.065411 -0.004404 0.096515 -0.989458 0.107972 201 186 38
-0.067467 -0.061860 -0.006518 0.051140 0.984179 -0.169636 182 152 0
-0.066664 -0.062187 -0.007022 0.022597 0.936486 -0.349974 171 141 19
-0.066450 -0.065155 -0.005255 0.046122 -0.991831 -0.118928 212 195 44
-0.069608 -0.064670 -0.002746 0.003598 -0.899216 0.437489 204 178 2
-0.072192 -0.061195 -0.002726 0.064300 0.992184 -0.106932 190 163 0
-0.072729 -0.064303 -0.000195 -0.104346 -0.898669 0.426034 234 202 19
-0.068252 -0.061806 -0.005855 0.035711 0.994050 -0.102903 184 156 1
-0.069039 -0.061692 -0.005225 0.065896 0.989029 -0.132206 184 157 0
-0.072987 -0.061045 -0.002135 0.054102 0.991287 -0.120095 196 170 1
-0.069835 -0.061546 -0.004637 0.071550 0.991600 -0.107751 186 158 0
-0.071192 -0.064245 -0.001655 0.056563 -0.998019 -0.027559 207 180 0
-0.075924 -0.061339 0.000656 -0.091137 0.583485 0.806994 228 212 2
-0.075680 -0.060991 0.000162 -0.030633 0.938921 0.342766 232 200 2
-0.075097 -0.060876 -0.000573 0.001317 0.998622 0.052469 223 201 0
-0.076084 -0.061968 0.000727 -0.207839 -0.240931 0.948027 228 212 2
-0.075526 -0.062567 0.000615 -0.260519 -0.508740 0.820557 239 218 19
-0.076975 -0.061085 0.000299 -0.040819 0.804643 0.592354 231 206 1
-0.074482 -0.063908 -0.000273 -0.261881 -0.775271 0.574781 212 185 0
-0.071821 -0.064431 -0.002367 -0.004109 -0.919091 0.394025 205 177 2
-0.070209 -0.065003 -0.003441 -0.043469 -0.961316 0.271996 206 177 3
-0.073366 -0.064389 -0.001029 -0.021228 -0.998590 0.048668 212 181 2
-0.074895 -0.060974 -0.001912 0.052770 0.988604 -0.140990 204 177 0
-0.072807 -0.061337 -0.003558 0.066621 0.996387 -0.052680 187 160 0
-0.073598 -0.061196 -0.002948 0.040321 0.983267 -0.177653 190 164 0
-0.069661 -0.061780 -0.006095 0.045399 0.986375 -0.158128 181 154 2
-0.069408 -0.065293 -0.004009 -0.117803 -0.945394 0.303897 207 178 0
-0.072594 -0.064362 -0.001768 0.045113 -0.998806 0.018773 204 181 0
-0.068875 -0.061893 -0.006731 0.013297 0.991281 -0.131096 181 156 4
-0.071004 -0.064803 -0.002903 0.004556 -0.886437 0.462826 205 178 0
-0.072031 -0.061397 -0.004245 0.066119 0.997753 -0.010788 187 160 0
-0.071249 -0.061454 -0.004908 0.056768 0.990365 -0.126307 186 160 1
-0.073907 -0.064333 -0.000627 -0.243397 -0.873946 0.420685 212 185 0
-0.070457 -0.061631 -0.005504 0.062640 0.983745 -0.168289 181 156 0
-0.074394 -0.061061 -0.002354 0.036075 0.988109 -0.149466 192 165 0
-0.077400 -0.061501 0.000586 -0.066910 0.212603 0.974845 231 206 1
-0.076529 -0.062533 0.000324 -0.207700 -0.573271 0.792604 243 216 19
-0.075831 -0.063133 0.000043 -0.238253 -0.668341 0.704666 240 215 48
-0.077257 -0.060870 -0.000574 0.017894 0.988979 0.146966 231 206 1
-0.075701 -0.060986 -0.002225 0.067354 0.981303 -0.180297 194 166 0
-0.076343 -0.060875 -0.001789 0.052135 0.997094 -0.055550 214 189 0
-0.077732 -0.062268 0.000326 -0.047586 -0.522423 0.851357 237 216 13
-0.074645 -0.064286 -0.001185 -0.113025 -0.954692 0.275298 209 178 3
-0.078650 -0.061113 0.000290 0.031865 0.761197 0.647738 226 205 17
-0.075790 -0.061046 -0.002539 0.067629 0.987829 -0.140074 194 166 0
-0.071860 -0.061610 -0.005723 0.041232 0.986510 -0.158423 182 156 0
-0.070852 -0.064962 -0.004419 0.013486 -0.991342 0.130617 211 185 10
-0.074228 -0.061241 -0.003856 0.068376 0.996947 -0.037697 188 161 0
-0.070282 -0.061929 -0.006942 0.063653 0.981846 -0.178686 180 152 2
-0.070044 -0.065223 -0.004981 -0.167229 -0.960720 0.221475 219 191 45
-0.073206 -0.064605 -0.002557 0.045272 -0.893947 0.445878 204 176 0
-0.072655 -0.061461 -0.005128 0.028473 0.976438 -0.213912 184 157 0
-0.071078 -0.061743 -0.006364 0.071425 0.984660 -0.159196 182 155 0
-0.073448 -0.061305 -0.004535 0.049386 0.992775 -0.109348 185 160 0
-0.075019 -0.061149 -0.003232 0.059211 0.993647 -0.095707 189 164 0
-0.072423 -0.064859 -0.003109 -0.039077 -0.928403 0.369515 201 178 2
-0.071565 -0.065233 -0.003640 -0.031189 -0.990171 0.136337 203 181 0
-0.074013 -0.064412 -0.002023 0.002350 -0.974387 0.224866 209 178 3
-0.078977 -0.061735 0.000597 0.049794 -0.076365 0.995836 226 205 17
-0.077287 -0.063030 -0.000296 -0.126913 -0.678423 0.723627 229 200 4
-0.076494 -0.063780 -0.000863 -0.163412 -0.741951 0.650234 214 181 0
-0.079998 -0.061379 0.000637 -0.024002 0.349597 0.936592 237 210 2
-0.079374 -0.060794 -0.000515 0.064118 0.973146 0.221081 233 209 6
-0.076084 -0.064240 -0.001251 -0.101665 -0.873073 0.476872 214 181 0
-0.080311 -0.060988 0.000230 -0.031505 0.831717 0.554304 229 206 21
-0.078358 -0.063013 -0.000345 0.052655 -0.692657 0.719343 229 201 3
-0.074593 -0.064733 -0.002685 -0.066954 -0.935170 0.347813 207 178 0
-0.073270 -0.061586 -0.005961 0.059981 0.990709 -0.122059 186 158 1
-0.074060 -0.061468 -0.005342 0.052177 0.986433 -0.155649 187 156 0
-0.077215 -0.060939 -0.002867 0.104921 0.984781 -0.138558 194 164 0
-0.073803 -0.065001 -0.003251 -0.014359 -0.981064 0.193153 202 181 0
-0.071702 -0.061790 -0.007257 0.060483 0.990878 -0.120425 179 152 6
-0.071445 -0.065356 -0.005135 0.017679 -0.882419 0.470132 206 188 71
-0.072244 -0.065073 -0.004605 -0.005799 -0.977526 0.210738 213 182 48
-0.074854 -0.061308 -0.004751 0.045438 0.981487 -0.186061 185 159 0
-0.073041 -0.064869 -0.004027 -0.086830 -0.994436 0.059654 200 181 4
-0.079374 -0.062640 0.000170 0.097055 -0.598639 0.795117 229 201 3
-0.076434 -0.061074 -0.003507 0.073576 0.992967 -0.092753 190 164 0
-0.072492 -0.061704 -0.006628 0.027575 0.991933 -0.123724 182 153 0
-0.075651 -0.061169 -0.004160 0.055493 0.992539 -0.108560 188 163 0
-0.075427 -0.064449 -0.002213 -0.020529 -0.971271 0.237088 208 177 3
-0.080455 -0.062000 0.000621 -0.066385 -0.232717 0.970276 237 210 2
-0.080528 -0.060765 -0.000263 -0.002022 0.962647 0.270751 229 206 21
-0.077927 -0.060817 -0.002627 0.079645 0.993011 -0.087092 198 167 0
-0.078734 -0.060750 -0.001998 0.057205 0.998361 -0.001481 198 167 0
-0.081201 -0.061441 0.000498 -0.180653 0.368617 0.911858 229 206 21
-0.080497 -0.060668 -0.001043 0.036993 0.993438 0.108223 232 202 2
-0.078199 -0.063754 -0.001110 0.036389 -0.715024 0.698152 216 185 5
-0.081635 -0.060892 -0.000139 -0.090684 0.864897 0.493689 231 203 0
-0.077595 -0.064272 -0.001754 0.022753 -0.731286 0.681692 216 185 0
-0.076260 -0.061268 -0.004984 0.074643 0.988669 -0.130242 187 159 0
-0.080813 -0.062892 0.000157 -0.121463 -0.627935 0.768730 218 193 0
-0.076792 -0.064750 -0.002227 0.197524 -0.879472 0.433029 207 179 0
-0.075476 -0.061392 -0.005623 0.076223 0.992407 -0.096531 180 159 0
-0.075232 -0.064758 -0.003622 -0.074527 -0.941211 0.329497 207 182 0
-0.080010 -0.063293 -0.000309 0.096183 -0.705526 0.702127 218 193 0
-0.077056 -0.061123 -0.004389 0.074377 0.990858 -0.112561 190 160 0
-0.074690 -0.061512 -0.006257 0.080250 0.993278 -0.083412 181 157 0
-0.073642 -0.065251 -0.004732 0.059719 -0.848313 0.526117 220 202 73
-0.073112 -0.061795 -0.007487 0.047917 0.990946 -0.125419 177 153 7
-0.074441 -0.064975 -0.004197 0.011238 -0.964988 0.262052 206 183 11
-0.073902 -0.061645 -0.006878 0.093035 0.990289 -0.103310 182 155 0
-0.076031 -0.064515 -0.003082 0.076813 -0.995509 0.055329 206 178 0
-0.079219 -0.063641 -0.000805 0.098369 -0.702036 0.705315 214 189 1
-0.077848 -0.060993 -0.003783 0.085851 0.987814 -0.129819 192 161 0
-0.078643 -0.060814 -0.003198 0.080901 0.990646 -0.109893 192 167 0
-0.081753 -0.062246 0.000257 -0.220810 -0.401704 0.888750 228 200 0
-0.079371 -0.060756 -0.002938 0.057798 0.995614 -0.073563 194 168 1
-0.080272 -0.060653 -0.002322 0.103787 0.994512 -0.013164 207 187 1
-0.082550 -0.061494 0.000188 -0.200080 0.284544 0.937551 231 203 0
-0.082215 -0.060495 -0.001290 0.062467 0.976758 0.205038 229 206 0
-0.081559 -0.060464 -0.002120 0.126149 0.991116 0.042139 208 185 0
-0.078943 -0.064633 -0.001746 0.101533 -0.668383 0.736854 208 181 0
-0.078152 -0.065086 -0.002253 -0.010436 -0.980796 0.194758 208 181 0
-0.079253 -0.060911 -0.004031 0.088903 0.991077 -0.099312 189 161 4
-0.080045 -0.060773 -0.003421 0.098396 0.988773 -0.112449 194 166 0
-0.078469 -0.061039 -0.004665 0.088143 0.992479 -0.084947 188 159 7
-0.077438 -0.064623 -0.003227 0.082207 -0.972384 0.218426 209 181 0
-0.080842 -0.060602 -0.002840 0.133917 0.987347 -0.084913 196 167 10
-0.076107 -0.061422 -0.006544 0.074213 0.995229 -0.063343 184 156 1
-0.075836 -0.065176 -0.004310 0.050043 -0.872249 0.486494 210 196 28
-0.076637 -0.064888 -0.003784 0.027692 -0.875402 0.482603 211 181 8
-0.075322 -0.061508 -0.007192 0.070913 0.991282 -0.111047 181 154 0
-0.076897 -0.061306 -0.005920 0.083564 0.991744 -0.097258 189 155 0
-0.081436 -0.063243 -0.000585 -0.107142 -0.623044 0.774813 220 196 6
-0.077689 -0.061167 -0.005313 0.098537 0.990044 -0.100517 187 159 0
-0.080625 -0.063874 -0.000918 -0.156158 -0.834827 0.527900 220 196 6
-0.079818 -0.064225 -0.001418 -0.123099 -0.849540 0.512961 213 190 6
-0.083450 -0.060865 -0.000429 -0.048681 0.762893 0.644689 226 198 1
-0.083116 -0.062164 0.000023 -0.183905 -0.315960 0.930778 216 195 10
-0.082529 -0.062663 -0.000249 -0.107288 -0.639245 0.761482 219 191 5
-0.081627 -0.063811 -0.000584 0.293729 -0.278927 0.914289 220 196 6
-0.083872 -0.061500 -0.000111 -0.191953 0.214899 0.957587 226 198 1
-0.084277 -0.061098 -0.000275 -0.155694 0.439285 0.884753 231 205 2
-0.084375 -0.060919 -0.000425 -0.260932 0.719845 0.643225 231 205 2
-0.084371 -0.060675 -0.000838 -0.158061 0.862612 0.480538 231 207 0
-0.077482 -0.061333 -0.006750 -0.025011 0.916939 -0.398242 190 154 0
-0.083034 -0.060298 -0.002515 0.115933 0.992926 -0.025629 206 177 0
-0.076709 -0.061643 -0.007324 -0.069270 0.835529 -0.545062 182 155 1
-0.079883 -0.060935 -0.004949 0.094376 0.993566 -0.062603 187 158 0
-0.082253 -0.060471 -0.003132 0.124970 0.985541 -0.114418 197 167 0
-0.083867 -0.060293 -0.001806 0.072230 0.967455 0.242514 231 206 2
-0.081215 -0.064046 -0.001713 0.276090 -0.855426 0.438201 225 200 37
-0.080676 -0.060802 -0.004343 0.106720 0.989389 -0.098597 188 160 3
-0.082840 -0.063210 -0.000814 -0.258216 -0.592469 0.763089 214 197 1
-0.079103 -0.061048 -0.005604 0.138322 0.990119 -0.023077 184 157 0
-0.077766 -0.061307 -0.006631 0.097908 0.990318 -0.098407 190 154 0
-0.079627 -0.064588 -0.002798 -0.306238 -0.951113 -0.040011 206 179 6
-0.080423 -0.064349 -0.002242 -0.180517 -0.933983 0.308367 229 193 22
-0.078831 -0.064817 -0.003360 -0.006498 -0.999083 0.042324 201 179 30
-0.078037 -0.065024 -0.003935 0.063017 -0.890185 0.451221 212 189 41
-0.083661 -0.062743 -0.000402 -0.147458 -0.617247 0.772828 218 193 0
-0.081472 -0.060639 -0.003754 0.121501 0.986418 -0.110535 194 162 0
-0.081980 -0.064400 -0.000818 -0.159688 -0.834124 0.527956 225 200 37
-0.078318 -0.061184 -0.006230 0.187265 0.982304 -0.003174 179 158 0
-0.078366 -0.061159 -0.006310 0.274014 0.952775 0.130907 179 158 0
-0.084467 -0.062123 -0.000316 -0.240579 -0.202433 0.949285 224 199 0
-0.084864 -0.060430 -0.001398 -0.080870 0.856555 0.509679 235 207 0
-0.085383 -0.061171 -0.000698 -0.200630 0.519547 0.830553 226 201 0
-0.080338 -0.060906 -0.005646 0.097440 0.994992 -0.022294 183 158 4
-0.084957 -0.060103 -0.002143 0.049442 0.956521 0.287444 220 192 0
-0.084258 -0.063167 -0.001081 -0.127686 -0.781880 0.610213 221 199 28
-0.083443 -0.063633 -0.001505 -0.145052 -0.786400 0.600446 225 202 34
-0.081824 -0.064481 -0.002396 0.036392 -0.941692 0.334503 218 196 18
-0.081309 -0.060822 -0.005273 0.117715 0.990553 -0.070341 182 161 2
-0.082637 -0.064088 -0.001928 -0.319921 -0.816123 0.481242 218 196 18
-0.082102 -0.060654 -0.004678 0.124626 0.989137 -0.077948 187 161 3
-0.082897 -0.060476 -0.004094 0.135258 0.979571 -0.148821 191 162 0
-0.083696 -0.060265 -0.003528 0.115927 0.985879 -0.120848 195 164 0
-0.084491 -0.060077 -0.002947 0.128021 0.990194 -0.055921 205 173 2
-0.085078 -0.062666 -0.000740 -0.184412 -0.591257 0.785117 220 197 2
-0.085975 -0.062107 -0.000603 -0.096206 -0.295707 0.950422 222 191 4
-0.086361 -0.061734 -0.000600 -0.048253 0.143230 0.988512 217 193 0
-0.086212 -0.060267 -0.001807 -0.020890 0.855133 0.517987 218 194 0
-0.087252 -0.061397 -0.000832 -0.072408 0.475309 0.876834 217 193 0
-0.087187 -0.061955 -0.000657 -0.098689 -0.113671 0.988605 217 193 0
-0.084300 -0.060412 -0.004332 0.094137 0.985397 -0.141882 188 161 0
-0.083517 -0.060528 -0.004972 0.085677 0.995745 -0.033913 186 158 3
-0.085097 -0.060235 -0.003755 0.121464 0.978882 -0.164432 194 163 1
-0.085894 -0.060017 -0.003188 0.120373 0.976700 -0.177668 201 167 3
-0.086490 -0.059883 -0.002744 0.091581 0.979749 0.178060 218 194 0
-0.084046 -0.064027 -0.002200 -0.145627 -0.788096 0.598077 226 203 36
-0.082735 -0.060606 -0.005633 0.114353 0.993002 -0.029512 186 159 3
-0.083231 -0.064531 -0.002599 -0.126238 -0.787352 0.603441 213 197 32
-0.086504 -0.062529 -0.000994 -0.184281 -0.669564 0.719530 218 194 0
-0.084688 -0.063688 -0.001876 -0.102093 -0.797925 0.594048 224 199 37
-0.084935 -0.063643 -0.001851 0.016204 -0.720718 0.693038 222 203 28
-0.085767 -0.063276 -0.001427 -0.100824 -0.592571 0.799183 222 203 28
-0.087237 -0.062262 -0.000846 -0.139984 -0.684209 0.715725 218 194 0
-0.087737 -0.060547 -0.001552 -0.032389 0.718740 0.694525 220 192 4
-0.088240 -0.061619 -0.000774 -0.031909 0.264950 0.963734 214 188 0
-0.088324 -0.059812 -0.002490 0.053575 0.888863 0.455030 205 180 0
-0.087090 -0.062932 -0.001606 -0.304272 -0.625875 0.718122 225 202 34
-0.087305 -0.059828 -0.003513 0.165310 0.976651 -0.137205 205 180 0
-0.086519 -0.060039 -0.004099 0.151814 0.981372 -0.117734 193 165 0
-0.086228 -0.064139 -0.001668 -0.289690 -0.493246 0.820238 143 130 52
-0.088725 -0.061927 -0.000890 -0.184537 -0.601224 0.777480 214 188 0
-0.084153 -0.060489 -0.005936 0.076344 0.997024 -0.010676 182 159 4
-0.084937 -0.060433 -0.005271 0.121895 0.989169 -0.081771 188 162 0
-0.087915 -0.062413 -0.001295 -0.205588 -0.783541 0.586342 220 194 21
-0.085735 -0.060235 -0.004701 0.166844 0.980397 -0.104806 188 162 0
-0.089154 -0.060876 -0.001271 0.046318 0.680676 0.731119 224 200 9
-0.086803 -0.063550 -0.001693 -0.772817 -0.540244 0.333000 223 201 32
-0.089597 -0.061311 -0.000832 0.032606 0.318052 0.947512 224 200 9
-0.088594 -0.059556 -0.003192 0.156572 0.985884 0.059298 205 180 0
-0.090171 -0.060863 -0.001119 0.131666 0.754106 0.643419 219 204 1
-0.091044 -0.060777 -0.000996 0.265209 0.614710 0.742829 228 203 0
-0.091363 -0.060867 -0.000684 0.468408 0.581076 0.665541 228 203 0
-0.088521 -0.062886 -0.001919 -0.109327 -0.538620 0.835426 223 199 26
-0.087680 -0.063555 -0.002249 -0.019414 -0.629363 0.776869 222 200 17
-0.086882 -0.063815 -0.002792 -0.607426 -0.709576 0.357122 222 200 17
-0.087153 -0.060059 -0.005028 0.137601 0.983905 -0.114006 186 159 8
-0.090146 -0.061752 -0.001230 -0.241341 -0.781781 0.574955 220 195 0
-0.089363 -0.062238 -0.001621 -0.207334 -0.631874 0.746825 218 195 8
-0.091501 -0.060867 -0.000612 0.117703 0.553984 0.824164 223 205 31
-0.088750 -0.059629 -0.003900 0.179328 0.967711 -0.177133 199 167 0
-0.087957 -0.059872 -0.004459 0.157226 0.974880 -0.157761 188 165 0
-0.090232 -0.059800 -0.002477 0.017599 0.799789 0.600024 232 207 0
-0.086418 -0.060219 -0.005713 0.153477 0.982996 -0.100816 185 156 3
-0.091204 -0.061151 -0.000897 -0.098255 -0.568844 0.816555 228 203 0
-0.091822 -0.060788 -0.000714 -0.369302 -0.018585 0.929124 223 205 31
-0.089798 -0.059360 -0.003571 0.195346 0.972440 -0.127285 227 199 2
-0.091287 -0.060163 -0.001892 0.095610 0.834851 0.542109 234 206 0
-0.090432 -0.059265 -0.003265 0.098711 0.944509 0.313303 227 199 2
-0.092133 -0.060190 -0.001619 0.111527 0.861997 0.494492 230 200 10
-0.092605 -0.060348 -0.001264 -0.004538 0.786479 0.617601 236 208 0
-0.089347 -0.059700 -0.004738 0.181745 0.973237 -0.140637 194 165 0
-0.090969 -0.059129 -0.003675 0.205851 0.970020 -0.129175 202 175 0
-0.090148 -0.059436 -0.004209 0.202857 0.957514 -0.204980 201 174 0
-0.089810 -0.063054 -0.002141 -0.225766 -0.469910 0.853354 216 196 50
-0.088576 -0.059888 -0.005362 0.161300 0.983383 -0.083300 191 160 0
-0.089077 -0.063735 -0.002374 -0.119159 -0.484282 0.866759 158 150 12
-0.091564 -0.061523 -0.001606 -0.271415 -0.734931 0.621458 222 197 0
-0.090763 -0.062112 -0.001950 -0.244432 -0.521196 0.817684 224 201 18
-0.089970 -0.063039 -0.002184 -0.209191 -0.450963 0.867682 216 196 50
-0.092966 -0.060533 -0.001197 -0.367589 0.019891 0.929775 236 208 0
-0.091613 -0.059149 -0.003428 0.002938 0.893760 0.448536 216 190 0
-0.092321 -0.059246 -0.003246 0.053007 0.882975 0.466418 216 190 0
-0.092939 -0.061180 -0.001807 -0.325784 -0.701771 0.633547 219 203 0
-0.093663 -0.060677 -0.001695 -0.371487 -0.633211 0.679001 230 204 6
-0.089998 -0.059658 -0.005721 0.179691 0.982393 -0.051127 190 161 3
-0.091601 -0.059179 -0.004626 0.202658 0.961011 -0.188113 195 167 0
-0.091097 -0.063240 -0.002400 -0.153426 -0.435815 0.886863 213 197 13
-0.090804 -0.059437 -0.005174 0.216843 0.966521 -0.137174 192 165 0
-0.091992 -0.062120 -0.002359 -0.319025 -0.448768 0.834763 225 198 16
-0.092428 -0.058882 -0.004128 0.138490 0.987403 0.076527 203 175 0
-0.094410 -0.060292 -0.001814 -0.456801 -0.272075 0.846940 240 206 0
-0.093880 -0.059284 -0.002954 0.074157 0.886658 0.456442 231 208 2
-0.093260 -0.058877 -0.003847 0.059148 0.926462 0.371710 231 208 2
-0.090283 -0.059605 -0.006172 0.176017 0.984383 0.002831 190 161 3
-0.091204 -0.059431 -0.005767 0.178343 0.976067 -0.124449 183 164 0
-0.091728 -0.063481 -0.002713 0.044698 -0.832611 0.552052 128 118 56
-0.095205 -0.059414 -0.002565 -0.119845 0.698357 0.705645 232 205 0
-0.093797 -0.058678 -0.004397 0.155613 0.980118 0.123099 212 185 1
-0.093018 -0.058942 -0.004989 0.234725 0.956791 -0.171623 199 171 3
-0.094421 -0.060957 -0.002410 -0.368983 -0.618191 0.694040 222 203 2
-0.092758 -0.062605 -0.002813 -0.340548 -0.143869 0.929155 211 186 39
-0.093614 -0.061682 -0.002655 -0.321136 -0.621600 0.714483 227 200 8
-0.092219 -0.059275 -0.005494 0.205517 0.958010 -0.199951 195 164 3
-0.092074 -0.063557 -0.002798 -0.298911 -0.317156 0.900035 128 118 56
-0.095400 -0.059836 -0.002320 -0.310345 0.331613 0.890909 232 205 0
-0.094805 -0.058666 -0.004056 0.125010 0.929363 0.347357 212 185 1
-0.095865 -0.058636 -0.003825 0.061575 0.910960 0.407872 229 202 0
-0.094208 -0.062168 -0.003269 -0.308643 -0.316980 0.896807 215 192 0
-0.095074 -0.061349 -0.003046 -0.331071 -0.528393 0.781789 221 202 0
-0.095253 -0.058341 -0.004875 0.214583 0.975448 0.049550 229 202 0
-0.094455 -0.058617 -0.005418 0.244080 0.962286 -0.120130 203 172 0
-0.093659 -0.058873 -0.005966 0.258641 0.958857 -0.117036 194 165 0
-0.093952 -0.062737 -0.003152 -0.262609 0.079854 0.961593 133 128 56
-0.096071 -0.060368 -0.002825 -0.398978 -0.444767 0.801873 221 197 0
-0.093967 -0.058859 -0.006429 0.212312 0.967186 -0.139552 194 165 0
-0.097092 -0.058676 -0.003760 -0.008307 0.861722 0.507314 244 220 44
-0.095068 -0.058612 -0.006325 0.254849 0.948800 -0.186628 187 164 1
-0.097853 -0.058694 -0.003785 -0.158641 0.672500 0.722894 244 220 44
-0.095621 -0.062010 -0.003632 -0.309515 -0.264381 0.913402 206 189 33
-0.096461 -0.061102 -0.003483 -0.358180 -0.484877 0.797873 224 196 2
