ply
format ascii 1.0
comment Exported by Geomagic
element vertex 707
property float x
property float y
property float z
property float nx
property float ny
property float nz
property uchar red
property uchar green
property uchar blue
end_header
-0.046131 0.061365 -0.011224 -0.069320 0.988254 -0.136193 215 193 2
-0.043580 0.058424 -0.011569 0.054810 -0.997146 0.051908 182 157 1
-0.045919 0.058460 -0.009524 0.069976 -0.995021 0.070962 186 159 0
-0.048531 0.058887 -0.007602 -0.000830 -0.701378 0.712788 194 165 1
-0.049809 0.059816 -0.007215 -0.084904 -0.099686 0.991390 217 195 1
-0.050261 0.061073 -0.007761 -0.099366 0.834508 0.541962 236 205 0
-0.050512 0.060494 -0.007358 -0.116069 0.319355 0.940501 251 228 11
-0.048348 0.058313 -0.008392 0.035317 -0.981366 0.188878 187 159 0
-0.051192 0.060983 -0.007640 -0.144970 0.709806 0.689318 236 205 0
-0.049965 0.059058 -0.007505 -0.033625 -0.609438 0.792121 195 165 0
-0.051306 0.060805 -0.007536 -0.097594 0.544545 0.833034 250 222 3
-0.048099 0.058285 -0.008865 0.051404 -0.993779 0.098799 187 159 0
-0.045953 0.061002 -0.012591 -0.034888 0.992707 0.115391 165 147 11
-0.047532 0.061262 -0.011353 -0.060689 0.988725 -0.136891 218 191 0
-0.045760 0.058255 -0.010958 0.106621 -0.987017 0.120123 184 159 0
-0.046742 0.061097 -0.011982 -0.058738 0.950665 -0.304609 220 190 4
-0.043393 0.057893 -0.012870 0.026960 -0.774742 0.631702 162 149 64
-0.045194 0.061241 -0.013466 -0.119357 0.968780 0.217299 167 149 10
-0.049868 0.061216 -0.009262 -0.079596 0.979162 -0.186833 225 196 1
-0.046540 0.058305 -0.010326 0.071260 -0.981531 0.177534 184 158 0
-0.048305 0.061151 -0.010634 -0.042696 0.993706 0.103560 221 192 0
-0.044195 0.058239 -0.012398 0.027944 -0.849762 0.526426 182 165 12
-0.047321 0.058336 -0.009671 0.079761 -0.995765 0.045721 188 161 1
-0.049078 0.061043 -0.009892 -0.058714 0.992631 -0.106006 225 192 0
-0.044976 0.058331 -0.011806 0.095930 -0.991118 0.092101 184 160 0
-0.050730 0.059308 -0.007374 -0.089036 -0.405097 0.909928 217 190 3
-0.051770 0.060705 -0.007539 -0.384910 0.559939 0.733697 250 222 3
-0.051172 0.061117 -0.008582 -0.118302 0.988520 0.093980 229 197 1
-0.051403 0.059598 -0.007397 -0.104109 -0.176352 0.978806 223 198 1
-0.051902 0.060784 -0.007762 -0.321618 0.762286 0.561678 229 201 0
-0.051956 0.060291 -0.007479 -0.234341 0.228689 0.944874 252 226 0
-0.049717 0.058417 -0.008312 -0.013395 -0.899599 0.436511 191 160 1
-0.051348 0.058869 -0.007733 -0.036367 -0.660842 0.749643 193 166 5
-0.046379 0.058091 -0.011770 0.068451 -0.994719 0.076469 186 159 3
-0.050479 0.060946 -0.010017 -0.067589 0.988699 -0.133807 221 194 0
-0.051267 0.061072 -0.009402 -0.078980 0.984152 -0.158767 224 195 0
-0.044792 0.057740 -0.013011 0.082074 -0.691922 0.717292 182 165 12
-0.046594 0.061111 -0.013621 -0.049861 0.993398 0.103320 165 147 11
-0.048931 0.061091 -0.011521 -0.068919 0.950979 -0.301481 221 193 0
-0.048723 0.058218 -0.009811 0.064554 -0.995138 0.074377 185 160 0
-0.049712 0.061107 -0.010836 -0.048793 0.993939 0.098511 215 194 0
-0.047158 0.058081 -0.011128 0.057763 -0.991056 0.120301 185 160 0
-0.049502 0.058206 -0.009110 0.037111 -0.987309 0.154410 186 160 0
-0.045595 0.058130 -0.012564 0.079095 -0.756713 0.648946 178 158 1
-0.047944 0.058195 -0.010503 0.055226 -0.985011 0.163412 186 158 0
-0.047369 0.061026 -0.012890 -0.008430 0.993751 0.111310 151 134 3
-0.048143 0.060934 -0.012159 -0.056388 0.988427 -0.140828 218 190 3
-0.052134 0.059088 -0.007597 -0.064607 -0.475375 0.877408 202 173 1
-0.052850 0.059315 -0.007597 -0.051191 -0.290932 0.955373 196 174 1
-0.052696 0.060983 -0.008993 -0.118996 0.991533 0.051983 223 195 0
-0.045970 0.057444 -0.012756 0.064803 -0.332035 0.941038 177 157 1
-0.053631 0.059967 -0.007614 -0.074228 0.389551 0.918009 248 223 1
-0.053547 0.060669 -0.008298 -0.150554 0.887174 0.436184 233 201 1
-0.051883 0.060850 -0.010133 -0.066426 0.997452 0.026028 222 195 0
-0.052696 0.058661 -0.007992 -0.015240 -0.710511 0.703521 197 164 1
-0.047006 0.057966 -0.012641 -0.052392 -0.789872 0.611029 154 154 70
-0.049542 0.060825 -0.012265 -0.076996 0.995507 -0.055109 218 191 0
-0.050905 0.058110 -0.009255 0.038228 -0.982367 0.183013 188 161 0
-0.048559 0.058001 -0.011297 0.047871 -0.996053 0.074754 185 160 0
-0.052667 0.060926 -0.009547 -0.104001 0.983254 -0.149653 223 195 0
-0.046431 0.057383 -0.012803 -0.167177 -0.413220 0.895154 154 154 70
-0.047995 0.060979 -0.013775 -0.081493 0.975747 -0.203167 151 134 3
-0.049345 0.058089 -0.010662 0.053775 -0.989113 0.136982 183 159 0
-0.050330 0.060940 -0.011663 -0.074197 0.956849 -0.280951 221 191 0
-0.047789 0.058102 -0.012090 0.022767 -0.995788 0.088811 187 161 0
-0.050126 0.058116 -0.010009 0.058429 -0.994257 0.089661 186 161 0
-0.051118 0.061056 -0.011062 -0.073456 0.995090 -0.066342 224 193 0
-0.048781 0.061042 -0.013159 -0.060300 0.998152 0.007587 217 191 0
-0.052117 0.058255 -0.008606 0.023477 -0.911721 0.410138 188 162 0
-0.053878 0.060824 -0.009024 -0.144682 0.987809 0.057447 227 198 0
-0.054210 0.059059 -0.007585 0.158354 -0.320559 0.933898 196 170 2
-0.054983 0.059420 -0.007410 0.100273 0.176786 0.979128 218 194 7
-0.053750 0.058568 -0.008006 0.182431 -0.703921 0.686451 197 164 1
-0.049964 0.057937 -0.011461 0.046550 -0.995662 0.080558 180 162 0
-0.050945 0.060733 -0.012431 -0.069335 0.993340 0.092031 219 191 0
-0.049190 0.058006 -0.012225 0.059834 -0.997340 0.041625 21 19 4
-0.050747 0.057981 -0.010820 0.053013 -0.991023 0.122735 186 160 0
-0.049394 0.060825 -0.013916 -0.071337 0.957808 -0.278415 215 186 43
-0.047585 0.057361 -0.013251 -0.177080 -0.609665 0.772627 154 154 70
-0.048403 0.057899 -0.012873 0.015170 -0.891917 0.451944 187 161 0
-0.052518 0.060923 -0.011183 -0.079111 0.989066 -0.124459 221 192 1
-0.051729 0.060791 -0.011804 -0.073472 0.957121 -0.280213 218 194 0
-0.050181 0.060936 -0.013289 -0.082960 0.996503 0.009987 219 190 9
-0.051529 0.058013 -0.010157 0.063311 -0.991965 0.109530 187 159 0
-0.053289 0.060803 -0.010426 -0.069796 0.996116 0.053680 218 196 0
-0.052310 0.058028 -0.009481 0.054490 -0.988178 0.143300 188 161 1
-0.054064 0.060747 -0.009714 -0.098035 0.995012 -0.018476 221 199 2
-0.055831 0.059952 -0.007685 -0.007737 0.700081 0.714021 252 228 0
-0.055118 0.060588 -0.008784 -0.101178 0.973774 0.203785 226 202 0
-0.055353 0.058813 -0.007410 0.198741 -0.363656 0.910086 197 170 0
-0.056034 0.059228 -0.007244 0.120855 0.162467 0.979285 220 194 5
-0.054827 0.058340 -0.007898 0.211049 -0.711833 0.669890 187 169 0
-0.054264 0.058169 -0.008327 0.241474 -0.843599 0.479616 192 163 3
-0.053860 0.058087 -0.008812 0.179191 -0.932106 0.314752 188 163 1
-0.056817 0.059442 -0.007222 0.033568 0.372265 0.927520 237 219 4
-0.055867 0.058309 -0.007600 0.140889 -0.679180 0.720323 197 170 0
-0.056475 0.058650 -0.007293 0.073216 -0.445838 0.892114 206 177 1
-0.057200 0.059643 -0.007356 -0.075787 0.658807 0.748485 253 223 0
-0.057018 0.059026 -0.007149 -0.012404 -0.033618 0.999358 206 177 1
-0.054693 0.060720 -0.010574 -0.060279 0.997622 0.033433 221 198 0
-0.052150 0.057878 -0.010979 0.070467 -0.991130 0.112671 185 159 0
-0.052352 0.060685 -0.012652 -0.056063 0.997479 0.043500 215 190 6
-0.054875 0.057921 -0.008572 0.179666 -0.925114 0.334492 190 162 1
-0.055467 0.060644 -0.009845 -0.065266 0.996411 0.053905 221 198 0
-0.053919 0.060796 -0.011337 -0.066921 0.989693 -0.126607 221 196 0
-0.049999 0.060470 -0.014636 -0.061224 0.941678 -0.330900 215 186 43
-0.049793 0.057626 -0.012943 0.125709 -0.800151 0.586477 21 19 4
-0.051582 0.060798 -0.013438 -0.073923 0.991461 -0.107427 209 189 38
-0.052931 0.057901 -0.010319 0.065114 -0.991732 0.110581 185 160 0
-0.053710 0.057911 -0.009630 0.074151 -0.983449 0.165317 188 161 0
-0.050792 0.060653 -0.014055 -0.058145 0.938941 -0.339131 211 194 4
-0.050594 0.057886 -0.012416 0.090761 -0.903650 0.418544 183 165 27
-0.053129 0.060637 -0.011966 -0.058333 0.986534 -0.152798 219 191 3
-0.051369 0.057853 -0.011724 0.072882 -0.993365 0.088961 186 162 2
-0.056207 0.060596 -0.009224 -0.042118 0.995323 0.086937 231 200 1
-0.055850 0.057924 -0.008135 0.133791 -0.879242 0.457202 191 165 1
-0.057376 0.060340 -0.008487 -0.061418 0.916487 0.395321 232 204 0
-0.054898 0.057798 -0.009175 0.194332 -0.976974 0.088079 190 162 1
-0.058088 0.059786 -0.007697 -0.121387 0.736586 0.665362 253 223 0
-0.058205 0.059198 -0.007303 -0.134637 0.220288 0.966099 210 185 4
-0.057774 0.058583 -0.007325 -0.055408 -0.407932 0.911329 210 185 4
-0.057120 0.058082 -0.007742 0.026274 -0.766180 0.642088 192 162 1
-0.055320 0.060659 -0.011457 -0.077828 0.964657 -0.251751 219 194 0
-0.053552 0.057768 -0.011150 0.059552 -0.991529 0.115430 185 160 0
-0.054530 0.060523 -0.012095 -0.070311 0.986278 -0.149370 215 191 0
-0.056868 0.060527 -0.010005 -0.069222 0.997601 0.000033 223 198 0
-0.052982 0.060670 -0.013582 -0.071544 0.985872 -0.151456 165 148 53
-0.051401 0.060352 -0.014792 0.048273 0.979088 -0.197626 150 137 6
-0.055885 0.057666 -0.009002 0.121790 -0.983311 0.135153 188 163 1
-0.052770 0.057733 -0.011839 0.070798 -0.988970 0.130105 185 161 0
-0.052192 0.060524 -0.014202 0.001598 0.969373 -0.245588 150 137 6
-0.051184 0.057358 -0.013016 0.013620 -0.802024 0.597138 23 17 0
-0.057652 0.060585 -0.009350 -0.057788 0.997104 0.049451 232 201 0
-0.053758 0.060620 -0.012867 -0.050047 0.998622 0.015811 215 192 5
-0.054332 0.057786 -0.010485 0.082958 -0.992840 0.085939 188 160 0
-0.055109 0.057768 -0.009791 0.139236 -0.988894 0.051980 187 162 1
-0.051979 0.057712 -0.012576 0.020739 -0.940077 0.340330 183 157 8
-0.056099 0.060663 -0.010838 -0.057059 0.997100 0.050355 223 195 0
-0.056887 0.057703 -0.008414 0.050241 -0.939532 0.338755 192 162 1
-0.051525 0.060375 -0.014993 0.169713 0.985462 0.007891 150 137 6
-0.059563 0.059414 -0.007634 -0.175232 0.562022 0.808348 252 226 3
-0.058903 0.060401 -0.008897 -0.108955 0.957479 0.267141 236 206 2
-0.058643 0.058122 -0.007706 -0.041164 -0.712368 0.700598 195 168 0
-0.059405 0.058530 -0.007509 -0.112180 -0.337939 0.934458 208 178 5
-0.059958 0.058959 -0.007516 -0.182072 0.129842 0.974675 208 178 5
-0.057285 0.057547 -0.009135 0.057599 -0.989000 0.136238 188 162 1
-0.052605 0.057468 -0.013284 -0.094478 -0.932832 0.347705 138 119 31
-0.053388 0.057552 -0.012638 0.057669 -0.980249 0.189173 185 160 0
-0.055931 0.060395 -0.012239 -0.080219 0.985538 -0.149267 217 191 0
-0.058270 0.060412 -0.010167 -0.087745 0.995987 -0.017658 226 198 1
-0.056718 0.060500 -0.011622 -0.074453 0.968565 -0.237358 222 195 0
-0.056508 0.057593 -0.009893 0.111072 -0.992997 0.040251 189 161 2
-0.051786 0.056956 -0.013707 -0.202597 -0.843707 0.497104 23 17 0
-0.053591 0.060367 -0.014341 -0.072904 0.946393 -0.314683 165 148 53
-0.054955 0.057660 -0.011337 0.078705 -0.991990 0.098801 187 159 0
-0.055732 0.057646 -0.010631 0.105580 -0.991823 0.071694 189 160 1
-0.054381 0.060507 -0.013734 -0.068163 0.967261 -0.244459 162 145 58
-0.059051 0.060447 -0.009514 -0.109447 0.993749 -0.022019 230 201 0
-0.057502 0.060577 -0.010989 -0.088472 0.995644 -0.029418 223 196 0
-0.054175 0.057628 -0.012025 0.053381 -0.988354 0.142502 183 161 0
-0.055163 0.060549 -0.013069 -0.064736 0.996062 -0.060587 216 189 1
-0.058730 0.057659 -0.008495 0.018632 -0.930774 0.365119 188 162 0
-0.060533 0.059779 -0.008362 -0.187131 0.774681 0.604029 234 204 1
-0.060179 0.060244 -0.009096 -0.165976 0.961814 0.217635 234 204 1
-0.060977 0.059124 -0.007823 -0.234015 0.448828 0.862433 223 198 15
-0.060317 0.057943 -0.008034 -0.046162 -0.730185 0.681688 199 167 7
-0.057132 0.057469 -0.010729 0.121580 -0.989363 0.079864 185 160 1
-0.054791 0.057469 -0.012830 0.037504 -0.987755 0.151445 187 160 0
-0.054004 0.057375 -0.013476 0.004540 -0.985063 0.172133 185 154 6
-0.059672 0.060302 -0.010332 -0.093324 0.994993 -0.035794 228 198 0
-0.058687 0.057451 -0.009332 0.056414 -0.984034 0.168801 184 163 1
-0.058118 0.060351 -0.011766 -0.081531 0.973095 -0.215496 220 196 0
-0.056565 0.060442 -0.013221 -0.086920 0.995469 -0.038556 218 188 0
-0.054990 0.060219 -0.014486 -0.022262 0.961054 -0.275462 162 145 58
-0.053133 0.057242 -0.014185 -0.065741 -0.967977 0.242278 138 119 31
-0.055782 0.060380 -0.013884 -0.087990 0.982331 -0.165181 210 185 30
-0.058902 0.060428 -0.011123 -0.095650 0.987986 -0.121386 224 195 1
-0.057332 0.060264 -0.012425 -0.089241 0.994597 -0.053031 216 190 0
-0.057905 0.057432 -0.010054 0.094489 -0.991616 0.088140 183 161 1
-0.055575 0.057519 -0.012209 0.072020 -0.990157 0.120008 189 160 3
-0.056349 0.057508 -0.011520 0.117085 -0.988959 0.090833 186 160 0
-0.060466 0.060248 -0.009678 -0.141585 0.989530 0.028024 232 203 0
-0.061545 0.058443 -0.007872 -0.170187 -0.168084 0.970970 210 175 5
-0.056310 0.060260 -0.014605 -0.131735 0.991165 0.015444 171 147 5
-0.062205 0.059914 -0.009262 -0.154986 0.952939 0.260550 235 203 1
-0.056975 0.057347 -0.012294 0.133911 -0.986379 0.095525 180 161 1
-0.057750 0.057305 -0.011575 0.132162 -0.986576 0.095913 184 159 0
-0.058527 0.057282 -0.010865 0.113908 -0.987232 0.111350 184 160 0
-0.058733 0.060133 -0.012565 -0.090700 0.991621 -0.091987 222 191 0
-0.059516 0.060197 -0.011904 -0.088886 0.972258 -0.216365 222 194 0
-0.057182 0.060241 -0.014027 -0.091022 0.976406 -0.195821 211 186 34
-0.054628 0.057255 -0.014350 0.019553 -0.983158 0.181709 185 154 6
-0.060089 0.057337 -0.009510 0.068574 -0.980445 0.184461 188 163 1
-0.056195 0.057372 -0.013025 0.089990 -0.989493 0.113159 184 159 3
-0.059306 0.057300 -0.010192 0.078499 -0.987253 0.138451 185 161 1
-0.060301 0.060273 -0.011263 -0.087589 0.991879 -0.092221 226 198 1
-0.061074 0.060197 -0.010526 -0.082640 0.995561 0.045051 228 201 1
-0.057965 0.060307 -0.013386 -0.096039 0.994686 -0.037110 218 186 2
-0.055415 0.057322 -0.013705 0.045163 -0.989254 0.139055 21 16 1
-0.056529 0.060197 -0.014605 -0.163205 0.985502 -0.046369 171 147 5
-0.061029 0.057447 -0.008814 0.053207 -0.924201 0.378182 191 166 1
-0.063024 0.058883 -0.008210 -0.185369 0.420122 0.888333 240 218 19
-0.062230 0.060048 -0.010088 -0.106860 0.987753 0.113687 228 201 0
-0.062530 0.057690 -0.008392 -0.016187 -0.699377 0.714569 192 171 0
-0.057736 0.060063 -0.014764 -0.170174 0.547175 0.819536 172 147 4
-0.057595 0.057185 -0.013116 0.129246 -0.988047 0.084022 189 160 0
-0.059147 0.057122 -0.011689 0.103098 -0.989119 0.104947 183 162 0
-0.059924 0.057107 -0.010989 0.100882 -0.985693 0.135029 185 160 1
-0.061700 0.060121 -0.011390 -0.090088 0.971742 -0.218178 224 196 0
-0.061489 0.057183 -0.009641 0.098641 -0.979527 0.175489 186 162 0
-0.060914 0.060032 -0.012040 -0.091163 0.969406 -0.227907 219 195 0
-0.058368 0.057140 -0.012413 0.126491 -0.987963 0.089045 184 160 3
-0.058580 0.060071 -0.014159 -0.098129 0.962980 -0.251081 217 190 26
-0.060134 0.060014 -0.012731 -0.095159 0.994717 0.038511 216 192 0
-0.056022 0.057035 -0.014452 0.134226 -0.865431 0.482713 21 16 1
-0.059365 0.060164 -0.013529 -0.097015 0.992303 -0.076962 218 191 0
-0.062477 0.060085 -0.010691 -0.082963 0.993400 0.079209 226 201 0
-0.057878 0.060008 -0.014766 -0.119714 0.971917 -0.202600 172 147 4
-0.056813 0.057225 -0.013891 0.102372 -0.958095 0.267535 167 155 64
-0.060708 0.057182 -0.010375 0.080867 -0.981759 0.172071 187 159 1
-0.064226 0.059298 -0.008809 -0.159238 0.738398 0.655296 242 211 0
-0.064210 0.058067 -0.008299 -0.089490 -0.206818 0.974279 197 176 3
-0.063120 0.057152 -0.009125 0.074046 -0.914562 0.397612 191 164 0
-0.061537 0.059904 -0.012870 -0.075552 0.996848 -0.024220 220 192 0
-0.058214 0.057042 -0.013965 0.081688 -0.966058 0.245066 166 152 63
-0.059766 0.056958 -0.012521 0.104320 -0.989521 0.099824 187 160 0
-0.062886 0.057001 -0.009762 0.116145 -0.981005 0.155368 191 164 0
-0.058988 0.056999 -0.013267 0.115323 -0.991549 0.059429 191 157 0
-0.059189 0.059777 -0.014921 -0.080061 0.986844 -0.140461 217 190 26
-0.057412 0.056758 -0.014520 0.076327 -0.862159 0.500856 167 155 64
-0.059976 0.059891 -0.014293 -0.092268 0.950229 -0.297574 150 139 67
-0.062313 0.059862 -0.012182 -0.087571 0.989246 -0.117143 223 195 0
-0.062107 0.057039 -0.010510 0.103288 -0.977899 0.181783 188 162 0
-0.061319 0.056918 -0.011137 0.101756 -0.986780 0.126137 186 161 0
-0.063098 0.059955 -0.011550 -0.083137 0.972862 -0.215934 224 199 0
-0.060764 0.060011 -0.013682 -0.092576 0.978943 -0.181934 218 191 0
-0.060545 0.056991 -0.011893 0.086752 -0.991381 0.098168 185 161 0
-0.063880 0.059996 -0.010887 -0.089593 0.995871 -0.014621 229 200 0
-0.064506 0.059875 -0.010334 -0.092692 0.980616 0.172631 229 200 0
-0.064682 0.057385 -0.008686 0.016437 -0.700586 0.713379 197 168 3
-0.065299 0.059588 -0.009644 -0.117372 0.921197 0.370971 232 201 0
-0.065893 0.058523 -0.008552 -0.129248 0.404093 0.905541 242 222 8
-0.064857 0.056978 -0.009219 0.050362 -0.886129 0.460694 188 166 0
-0.061164 0.056814 -0.012669 0.077244 -0.990875 0.110456 189 158 2
-0.060388 0.056831 -0.013376 0.108099 -0.992419 0.058471 184 160 2
-0.064283 0.056820 -0.009888 0.087990 -0.973638 0.210444 188 166 0
-0.063712 0.059711 -0.012314 -0.098738 0.991171 -0.088496 217 193 3
-0.062164 0.059867 -0.013809 -0.083742 0.988891 -0.122812 217 190 0
-0.058815 0.056663 -0.014696 -0.023652 -0.897142 0.441110 166 152 63
-0.060602 0.059817 -0.015177 -0.034201 0.993249 0.110848 150 139 67
-0.062718 0.056754 -0.011263 0.106199 -0.988921 0.103708 183 161 0
-0.065282 0.059877 -0.011030 -0.084627 0.996366 0.009675 230 200 0
-0.064497 0.059806 -0.011688 -0.080548 0.967051 -0.241503 227 199 1
-0.062938 0.059793 -0.013087 -0.084979 0.996356 -0.007200 217 194 0
-0.061947 0.056869 -0.012046 0.088929 -0.993887 0.065423 182 161 5
-0.061373 0.059709 -0.014448 -0.066368 0.989672 -0.127061 213 190 13
-0.063502 0.056838 -0.010653 0.119160 -0.978292 0.169547 184 163 0
-0.059592 0.056897 -0.014274 0.075199 -0.978142 0.193868 178 159 14
-0.066004 0.057148 -0.008897 0.030191 -0.714754 0.698724 190 169 0
-0.066814 0.057684 -0.008536 0.026867 -0.248281 0.968316 198 169 0
-0.067170 0.058974 -0.009073 -0.113156 0.736400 0.667016 243 221 0
-0.066658 0.059654 -0.010313 -0.098567 0.967926 0.231090 229 201 0
-0.065792 0.056825 -0.009538 0.088683 -0.928792 0.359834 190 167 0
-0.067785 0.057489 -0.008490 0.006718 -0.561537 0.827424 200 171 2
-0.067921 0.059264 -0.009622 -0.107829 0.859005 0.500483 236 205 0
-0.067468 0.057234 -0.008709 0.080854 -0.571848 0.816365 198 169 0
-0.064902 0.056641 -0.010707 0.095611 -0.980442 0.172022 190 164 0
-0.061788 0.056701 -0.013537 0.078323 -0.994606 0.068004 182 160 2
-0.064118 0.056598 -0.011384 0.100826 -0.992131 0.074231 190 164 0
-0.065111 0.059559 -0.012450 -0.093123 0.990470 -0.101478 222 195 0
-0.063564 0.059728 -0.013949 -0.084503 0.983919 -0.157357 216 191 0
-0.060225 0.056664 -0.014929 0.057814 -0.967554 0.245961 178 159 14
-0.061010 0.056711 -0.014257 0.088356 -0.989947 0.110447 19 15 7
-0.062006 0.059730 -0.015357 -0.097863 0.992639 0.071350 213 190 13
-0.062774 0.059587 -0.014576 -0.091370 0.994049 -0.059307 218 187 24
-0.065897 0.059655 -0.011824 -0.082871 0.967563 -0.238651 227 199 0
-0.064339 0.059670 -0.013231 -0.097824 0.995082 0.015543 218 193 1
-0.066682 0.059737 -0.011176 -0.098162 0.987804 -0.120866 227 200 1
-0.063347 0.056724 -0.012182 0.105489 -0.993043 0.052318 195 163 6
-0.062565 0.056699 -0.012875 0.082832 -0.990171 0.112702 183 164 12
-0.068504 0.058316 -0.008733 -0.043752 0.511524 0.858154 247 231 0
-0.066963 0.056785 -0.009260 0.143662 -0.875352 0.461651 190 167 0
-0.068636 0.057702 -0.008489 0.007643 0.105913 0.994346 200 171 2
-0.066162 0.056625 -0.010072 0.109159 -0.967515 0.228034 190 167 0
-0.067809 0.059618 -0.010601 -0.096713 0.980294 0.172254 232 202 1
-0.068103 0.057074 -0.008699 0.039684 -0.555582 0.830515 200 171 2
-0.069016 0.058860 -0.009237 -0.111530 0.779150 0.616835 245 213 4
-0.069177 0.057584 -0.008509 -0.179732 -0.433516 0.883040 212 176 2
-0.067717 0.056664 -0.009248 0.092022 -0.898443 0.429339 188 168 0
-0.068598 0.056982 -0.008791 -0.090675 -0.720747 0.687242 200 171 2
-0.069641 0.057823 -0.008466 -0.035188 0.260075 0.964947 212 176 2
-0.069696 0.058066 -0.008599 -0.019679 0.547556 0.836538 229 203 5
-0.069267 0.057427 -0.008595 -0.187989 -0.416435 0.889518 212 176 2
-0.069244 0.059201 -0.009826 -0.108751 0.876807 0.468384 234 203 5
-0.066512 0.059410 -0.012581 -0.080169 0.967218 -0.240961 222 196 0
-0.063966 0.056546 -0.012972 0.108121 -0.988141 0.109030 187 170 11
-0.065518 0.056480 -0.011545 0.082535 -0.993619 0.076876 193 164 1
-0.061627 0.056544 -0.015090 0.137954 -0.950159 0.279582 19 15 7
-0.063403 0.059556 -0.015487 -0.084431 0.996423 0.003590 149 146 51
-0.067078 0.056505 -0.010181 0.131213 -0.974798 0.180422 187 166 0
-0.068081 0.059583 -0.011314 -0.083741 0.988732 -0.124084 229 199 0
-0.064176 0.059455 -0.014731 -0.090365 0.993351 -0.071322 214 187 0
-0.067296 0.059498 -0.011963 -0.087942 0.968240 -0.234047 226 198 0
-0.063187 0.056566 -0.013713 0.095053 -0.993350 0.064958 183 158 0
-0.064960 0.059543 -0.014092 -0.096915 0.970556 -0.220518 218 189 0
-0.065740 0.059543 -0.013401 -0.093318 0.995436 0.019987 221 192 1
-0.064744 0.056559 -0.012329 0.111498 -0.990948 0.074770 191 170 15
-0.066300 0.056503 -0.010899 0.084043 -0.989262 0.119571 189 164 0
-0.069369 0.057285 -0.008707 -0.290395 -0.572040 0.767099 194 169 0
-0.062416 0.056607 -0.014528 0.116109 -0.962544 0.245003 167 157 75
-0.070075 0.058549 -0.009040 -0.085749 0.710310 0.698646 244 220 0
-0.070170 0.058059 -0.008646 -0.396884 0.065285 0.915544 213 189 1
-0.070242 0.057987 -0.008754 -0.514388 -0.414275 0.750853 213 189 1
-0.068615 0.056618 -0.009324 -0.045446 -0.858207 0.511289 188 168 0
-0.069513 0.059406 -0.010394 -0.080116 0.956472 0.280612 231 199 0
-0.070690 0.058440 -0.009019 -0.421891 0.463465 0.779236 248 227 4
-0.070400 0.057789 -0.008899 -0.198514 0.003524 0.980092 201 175 10
-0.069716 0.057023 -0.009057 -0.183944 -0.618283 0.764129 194 169 0
-0.070572 0.058917 -0.009557 -0.143917 0.821987 0.551023 241 211 0
-0.069659 0.059468 -0.010805 -0.110681 0.992251 0.056459 228 196 0
-0.070725 0.059095 -0.009860 -0.247744 0.878230 0.409066 236 203 0
-0.070978 0.058656 -0.009432 -0.317869 0.682744 0.657890 241 211 0
-0.070932 0.057801 -0.008968 -0.251890 -0.053484 0.966277 201 175 10
-0.070621 0.059224 -0.010215 -0.240311 0.937029 0.253429 230 200 0
-0.063812 0.056460 -0.014504 0.071182 -0.914045 0.399319 183 161 7
-0.068473 0.056259 -0.010241 0.106164 -0.961543 0.253308 186 164 0
-0.071123 0.058047 -0.009056 -0.233807 0.321935 0.917438 213 186 0
-0.064588 0.056423 -0.013845 0.107575 -0.993385 0.040171 186 164 0
-0.066141 0.056371 -0.012424 0.128866 -0.979335 0.155873 189 169 19
-0.068694 0.059330 -0.012090 -0.098038 0.967129 -0.234629 227 196 0
-0.063001 0.056049 -0.015029 0.164455 -0.737088 0.655481 167 157 75
-0.064022 0.059395 -0.016322 -0.056875 0.981327 -0.183749 149 146 51
-0.067910 0.059258 -0.012752 -0.110192 0.990132 -0.086592 223 195 0
-0.067140 0.059412 -0.013548 -0.107093 0.989780 -0.094162 222 191 0
-0.066358 0.059370 -0.014222 -0.103075 0.975463 -0.194544 217 190 1
-0.064807 0.059467 -0.015679 -0.072857 0.997125 -0.020830 158 147 40
-0.069477 0.059411 -0.011457 -0.112463 0.977449 -0.178731 228 196 0
-0.065354 0.056356 -0.013139 0.145275 -0.986036 0.081405 192 168 0
-0.067695 0.056339 -0.011030 0.159255 -0.983903 0.081077 186 163 0
-0.065574 0.059308 -0.014891 -0.108385 0.990732 -0.081867 216 190 3
-0.066921 0.056369 -0.011758 0.098737 -0.989912 0.101616 191 164 1
-0.071264 0.058397 -0.009292 -0.170272 0.568510 0.804862 248 220 3
-0.070891 0.057446 -0.009079 -0.196410 -0.361859 0.911307 201 175 10
-0.071423 0.058739 -0.009627 -0.228431 0.763646 0.603874 240 204 0
-0.070561 0.059327 -0.010844 -0.156985 0.986996 0.034548 230 200 0
-0.071488 0.057873 -0.009165 -0.338318 0.059580 0.939144 213 186 0
-0.071634 0.058270 -0.009321 -0.301869 0.457010 0.836670 250 229 5
-0.071339 0.059038 -0.010174 -0.180423 0.911091 0.370621 236 203 0
-0.070034 0.056380 -0.009836 -0.017691 -0.839867 0.542504 191 164 0
-0.071832 0.058690 -0.009782 -0.255477 0.754614 0.604392 240 204 0
-0.071152 0.056811 -0.009490 -0.108157 -0.587103 0.802254 195 169 0
-0.066759 0.056094 -0.013139 0.112810 -0.983684 0.140139 188 169 6
-0.069870 0.056105 -0.010391 0.056713 -0.918779 0.390678 191 164 0
-0.069092 0.056080 -0.011078 0.175503 -0.982228 0.066534 191 165 0
-0.069307 0.059080 -0.012867 -0.123336 0.987021 -0.102850 223 194 0
-0.066972 0.059130 -0.014995 -0.124933 0.991264 -0.042296 216 191 2
-0.067538 0.056147 -0.012520 0.081560 -0.982915 0.165009 191 168 22
-0.064391 0.055761 -0.015090 -0.061372 -0.666122 0.743313 183 161 7
-0.065422 0.059251 -0.016469 -0.080818 0.971366 -0.223421 158 147 40
-0.070876 0.059229 -0.011568 -0.108137 0.979827 -0.168062 224 196 0
-0.070090 0.059153 -0.012224 -0.104880 0.964540 -0.242202 226 196 0
-0.066207 0.059334 -0.015826 -0.099981 0.993586 -0.052826 166 147 40
-0.065984 0.056249 -0.013989 0.147489 -0.989062 -0.001606 189 167 5
-0.067756 0.059196 -0.014350 -0.102120 0.972977 -0.207092 217 193 0
-0.065217 0.056350 -0.014748 0.020680 -0.932790 0.359826 185 165 3
-0.068315 0.056170 -0.011861 0.133634 -0.986348 0.096231 190 167 9
-0.068536 0.059243 -0.013702 -0.122582 0.990308 -0.065283 221 193 0
-0.071560 0.059194 -0.010990 -0.105316 0.992130 0.067727 223 199 0
-0.072026 0.059050 -0.010496 -0.117471 0.934972 0.334707 223 199 0
-0.072065 0.057374 -0.009376 -0.156677 -0.184907 0.970186 204 175 5
-0.072543 0.058172 -0.009595 -0.202006 0.427761 0.881030 245 220 0
-0.072568 0.058817 -0.010208 -0.159732 0.823561 0.544273 229 200 0
-0.072296 0.059141 -0.011066 -0.080648 0.995137 0.056572 225 196 1
-0.072618 0.059066 -0.010733 -0.120723 0.955313 0.269820 229 200 0
-0.072970 0.057544 -0.009463 -0.062019 0.076391 0.995147 216 192 0
-0.073355 0.057851 -0.009544 -0.088775 0.246459 0.965079 230 208 0
-0.073336 0.058615 -0.010117 -0.137694 0.778920 0.611819 237 205 1
-0.072995 0.057104 -0.009507 -0.044751 -0.288415 0.956459 199 173 1
-0.069715 0.055925 -0.011894 0.161719 -0.985736 0.046607 192 165 5
-0.067376 0.055989 -0.014044 0.151939 -0.988371 0.006202 186 162 15
-0.070705 0.058888 -0.012975 -0.118648 0.980351 -0.157589 219 196 0
-0.067607 0.059176 -0.015944 -0.118325 0.992588 -0.027691 211 187 0
-0.068370 0.058947 -0.015114 -0.121868 0.992154 -0.027897 218 188 0
-0.070482 0.055828 -0.011164 0.128397 -0.980784 0.146894 188 163 0
-0.065810 0.055889 -0.015398 -0.019344 -0.798971 0.601059 185 165 3
-0.066821 0.059099 -0.016611 -0.100222 0.980308 -0.170154 166 147 40
-0.069933 0.059034 -0.013782 -0.137248 0.990348 -0.019319 221 193 0
-0.071488 0.058970 -0.012347 -0.098547 0.962259 -0.253666 222 196 0
-0.072274 0.059068 -0.011707 -0.088736 0.980048 -0.177858 225 196 1
-0.073351 0.058929 -0.010653 -0.151147 0.922800 0.354393 227 198 0
-0.066607 0.056165 -0.014872 0.141634 -0.955465 0.258898 23 17 0
-0.069153 0.059025 -0.014481 -0.096061 0.969770 -0.224320 218 192 1
-0.072692 0.056618 -0.009723 -0.005862 -0.512824 0.858474 198 170 2
-0.073380 0.057217 -0.009506 -0.084370 -0.147215 0.985499 199 173 1
-0.068934 0.056009 -0.012699 0.135679 -0.987941 0.074599 190 170 11
-0.071268 0.055945 -0.010571 0.037737 -0.916115 0.399136 188 165 0
-0.068158 0.056018 -0.013408 0.073286 -0.992228 0.100556 184 166 25
-0.073779 0.057783 -0.009572 -0.135379 0.252686 0.958030 229 200 9
-0.071879 0.056120 -0.010237 0.050961 -0.810694 0.583248 188 165 0
-0.073668 0.057434 -0.009527 -0.099915 -0.006838 0.994973 205 178 0
-0.073071 0.059061 -0.011217 -0.120428 0.992496 -0.021168 227 198 0
-0.074051 0.058150 -0.009785 -0.082585 0.518909 0.850831 241 211 0
-0.074234 0.057565 -0.009601 -0.122394 0.135548 0.983182 205 183 0
-0.074192 0.057197 -0.009596 -0.087701 -0.146877 0.985259 194 169 1
-0.073934 0.056767 -0.009697 -0.060966 -0.342680 0.937472 194 169 1
-0.074582 0.058673 -0.010533 -0.116923 0.910790 0.395969 228 200 0
-0.075099 0.058114 -0.009762 -0.005055 0.384205 0.923234 245 216 0
-0.073627 0.056284 -0.009900 0.007681 -0.541854 0.840438 191 166 1
-0.074972 0.057671 -0.009665 -0.023186 0.133706 0.990750 205 183 0
-0.073232 0.055986 -0.010180 0.080763 -0.713696 0.695784 191 165 0
-0.071106 0.055706 -0.012005 0.138995 -0.988652 0.056997 188 167 23
-0.075261 0.058431 -0.010091 -0.027336 0.861381 0.507224 233 204 0
-0.068779 0.055906 -0.014236 0.065973 -0.995255 0.071517 191 162 0
-0.069767 0.058776 -0.015246 -0.092845 0.966609 -0.238848 215 190 0
-0.072100 0.058702 -0.013107 -0.115267 0.984389 -0.133012 221 197 0
-0.069005 0.059009 -0.016083 -0.118877 0.992684 -0.021089 154 150 70
-0.073673 0.058906 -0.011836 -0.103523 0.975474 -0.194249 225 197 0
-0.067205 0.055676 -0.015504 0.041468 -0.896497 0.441105 23 17 0
-0.070552 0.058861 -0.014608 -0.112642 0.977874 -0.176279 216 190 0
-0.072885 0.058797 -0.012475 -0.093451 0.958584 -0.269041 224 198 0
-0.068218 0.058918 -0.016739 -0.131000 0.988567 0.074664 161 145 9
-0.069551 0.055863 -0.013532 0.132115 -0.989530 0.058114 189 167 5
-0.072659 0.055728 -0.010660 0.162583 -0.885752 0.434753 191 165 0
-0.071329 0.058848 -0.013910 -0.124864 0.991160 -0.044840 217 192 0
-0.071875 0.055646 -0.011314 0.135958 -0.968329 0.209416 186 163 0
-0.070325 0.055796 -0.012821 0.162179 -0.984764 0.062745 187 172 7
-0.068009 0.055882 -0.014957 0.063890 -0.984000 0.166319 169 155 89
-0.074489 0.058869 -0.011301 -0.144195 0.989103 0.029720 228 200 0
-0.074974 0.056995 -0.009713 -0.069052 -0.221519 0.972708 199 172 3
-0.075710 0.057821 -0.009686 -0.030932 0.193698 0.980573 223 197 8
-0.068449 0.059042 -0.017136 -0.147594 0.916084 0.372836 161 145 9
-0.076021 0.058187 -0.009858 -0.070569 0.584564 0.808273 238 208 0
-0.076371 0.058441 -0.010226 -0.078987 0.907153 0.413321 233 204 0
-0.074567 0.055893 -0.010196 0.019446 -0.640047 0.768090 190 163 0
-0.075185 0.056288 -0.009964 -0.033859 -0.433572 0.900482 190 162 0
-0.076156 0.057147 -0.009730 -0.010282 -0.179867 0.983638 202 173 4
-0.076148 0.058575 -0.010698 -0.082225 0.979866 0.181939 232 200 0
-0.070959 0.055613 -0.013504 0.150168 -0.986212 0.069535 182 167 2
-0.076807 0.057701 -0.009713 -0.025797 0.229452 0.972979 226 195 8
-0.073274 0.055387 -0.011357 0.172514 -0.974534 0.143259 189 162 0
-0.073498 0.058523 -0.013228 -0.118675 0.989851 -0.078164 221 196 0
-0.070175 0.055753 -0.014390 0.160742 -0.985638 0.051749 189 160 0
-0.068620 0.055751 -0.015782 -0.006132 -0.986259 0.165090 169 155 89
-0.069616 0.058746 -0.016866 -0.113018 0.989877 -0.085862 154 150 70
-0.074283 0.058623 -0.012604 -0.097162 0.955656 -0.277994 228 201 1
-0.074054 0.055467 -0.010727 0.120747 -0.869028 0.479803 190 163 0
-0.075069 0.058728 -0.011976 -0.110973 0.973094 -0.201925 229 201 0
-0.071946 0.058665 -0.014734 -0.114212 0.976481 -0.182867 218 192 0
-0.070401 0.058835 -0.016234 -0.123719 0.989116 -0.079656 167 145 45
-0.072727 0.058675 -0.014045 -0.119126 0.992741 -0.016547 217 193 0
-0.071163 0.058606 -0.015402 -0.125797 0.990631 -0.053149 213 188 0
-0.072496 0.055525 -0.012191 0.147430 -0.987934 0.047435 189 166 10
-0.069406 0.055806 -0.015149 0.075653 -0.993478 0.085311 183 163 1
-0.071819 0.055530 -0.013218 0.136788 -0.987679 0.076016 182 167 2
-0.076170 0.058615 -0.011386 -0.137314 0.989262 0.050050 232 200 0
-0.076183 0.056319 -0.009995 -0.018724 -0.394823 0.918567 189 163 2
-0.077690 0.058160 -0.010070 -0.075916 0.805402 0.587847 240 208 0
-0.077436 0.058435 -0.010730 -0.132552 0.979863 0.149321 231 201 0
-0.077646 0.056947 -0.009733 0.036977 -0.225484 0.973545 205 175 2
-0.076022 0.055659 -0.010366 0.003274 -0.609361 0.792887 190 161 2
-0.071533 0.055494 -0.014385 0.166169 -0.985869 0.021218 186 160 0
-0.077154 0.056398 -0.009950 0.027918 -0.401670 0.915359 193 166 0
-0.078362 0.057541 -0.009648 0.044388 0.222145 0.974003 240 208 0
-0.071799 0.058637 -0.016322 -0.135734 0.989162 -0.055992 216 188 2
-0.072562 0.058411 -0.015493 -0.132373 0.990153 -0.045535 216 190 0
-0.074126 0.058509 -0.014161 -0.119799 0.992291 -0.031719 220 191 8
-0.074661 0.055119 -0.011444 0.164213 -0.970737 0.175228 184 161 0
-0.075449 0.055237 -0.010818 0.085687 -0.837578 0.539555 190 161 2
-0.074893 0.058338 -0.013362 -0.116214 0.980649 -0.157549 223 193 2
-0.071013 0.058569 -0.016993 -0.112094 0.975296 -0.190351 169 140 10
-0.070024 0.055666 -0.015963 0.164849 -0.981581 0.096561 183 163 1
-0.070797 0.055545 -0.015193 0.169261 -0.974278 0.148773 188 160 2
-0.075679 0.058439 -0.012732 -0.102213 0.953751 -0.282687 226 198 0
-0.073344 0.058485 -0.014855 -0.107798 0.969993 -0.217928 216 190 0
-0.073891 0.055296 -0.012267 0.176679 -0.983913 -0.026456 185 165 0
-0.076463 0.058527 -0.012098 -0.136433 0.981667 -0.133099 228 200 0
-0.073176 0.055324 -0.013178 0.157474 -0.979495 0.125661 191 168 7
-0.077625 0.058428 -0.011448 -0.125664 0.991510 -0.033432 231 201 0
-0.079224 0.057903 -0.009776 -0.016745 0.719614 0.694172 240 212 0
-0.078696 0.058271 -0.010806 -0.139475 0.979343 0.146404 229 202 0
-0.077431 0.055591 -0.010408 0.033260 -0.589443 0.807126 189 162 3
-0.078403 0.056023 -0.010081 0.038784 -0.478522 0.877218 192 164 1
-0.073739 0.055128 -0.013750 0.186555 -0.976412 0.108705 186 164 7
-0.076055 0.054876 -0.011522 0.133805 -0.972179 0.192262 187 160 0
-0.072412 0.058392 -0.017108 -0.146411 0.967128 -0.207912 150 131 88
-0.073194 0.058427 -0.016431 -0.156736 0.981890 0.106427 206 181 33
-0.076291 0.058149 -0.013474 -0.121925 0.990745 -0.059656 221 199 0
-0.074516 0.055160 -0.013094 0.140341 -0.962133 0.233675 184 169 13
-0.073956 0.058217 -0.015618 -0.132957 0.989817 -0.050849 215 189 1
-0.071408 0.055302 -0.015979 0.144699 -0.968226 0.203964 188 160 2
-0.071816 0.058463 -0.017700 -0.213347 0.972048 -0.098012 169 140 10
-0.077859 0.058309 -0.012185 -0.131778 0.979442 -0.152737 233 200 0
-0.077076 0.058252 -0.012851 -0.106907 0.955596 -0.274604 229 199 0
-0.072959 0.055238 -0.014554 0.111892 -0.988329 0.103370 176 153 51
-0.076844 0.055052 -0.010950 0.059651 -0.821572 0.566974 189 162 1
-0.075524 0.058354 -0.014314 -0.110468 0.993631 -0.022238 218 193 0
-0.074741 0.058304 -0.014983 -0.101773 0.970408 -0.218980 217 189 6
-0.075281 0.055043 -0.012363 0.170324 -0.984657 -0.037964 188 162 6
-0.072179 0.055386 -0.015385 0.169228 -0.978972 0.113910 154 163 43
-0.080267 0.057363 -0.009513 0.031991 0.154109 0.987536 253 232 17
-0.079511 0.056620 -0.009711 0.087904 -0.365020 0.926841 197 168 0
-0.078872 0.058262 -0.011490 -0.143932 0.989270 -0.025055 229 202 0
-0.079979 0.058057 -0.010483 -0.117388 0.979675 0.162652 232 206 0
-0.080901 0.057784 -0.009774 -0.071090 0.862948 0.500267 250 215 5
-0.078784 0.055254 -0.010576 0.035157 -0.680648 0.731767 183 160 0
-0.074359 0.055006 -0.014600 0.150428 -0.988614 -0.003619 176 167 0
-0.076683 0.054822 -0.012409 0.134688 -0.989532 -0.051820 196 163 0
-0.075126 0.054816 -0.013801 0.169880 -0.977592 0.124323 187 163 0
-0.073584 0.055080 -0.015359 -0.134752 -0.943364 0.303163 176 153 51
-0.077687 0.057968 -0.013601 -0.119233 0.984292 -0.130201 227 197 0
-0.075354 0.058031 -0.015735 -0.123355 0.985050 -0.120249 215 185 21
-0.075910 0.054961 -0.013212 0.144105 -0.984736 0.097613 187 166 12
-0.077450 0.054681 -0.011649 0.111858 -0.978083 0.175615 182 160 0
-0.073806 0.058194 -0.017235 -0.117564 0.964332 -0.237153 206 181 33
-0.072805 0.055119 -0.016103 0.181882 -0.962759 0.200036 154 163 43
-0.073545 0.055048 -0.015392 0.032843 -0.969488 0.242929 176 153 51
-0.073017 0.058063 -0.017855 -0.178861 0.945551 -0.271923 150 131 88
-0.079255 0.058106 -0.012297 -0.123914 0.975502 -0.181773 233 203 0
-0.078239 0.054856 -0.011063 0.065771 -0.836777 0.543578 183 160 0
-0.076923 0.058191 -0.014447 -0.117997 0.990499 -0.070631 222 193 0
-0.078471 0.058051 -0.012967 -0.116257 0.963792 -0.239977 229 200 0
-0.074586 0.058218 -0.016559 -0.148005 0.988303 -0.036775 173 151 34
-0.076138 0.058125 -0.015110 -0.100549 0.963755 -0.247116 217 188 7
-0.080316 0.058024 -0.011563 -0.162420 0.986388 -0.025657 234 203 0
-0.081650 0.056612 -0.009483 0.062524 -0.230690 0.971016 198 169 0
-0.082305 0.057685 -0.009770 -0.121395 0.818700 0.561243 250 215 5
-0.081024 0.055993 -0.009823 0.122385 -0.539197 0.833240 198 169 0
-0.080063 0.055370 -0.010445 0.085128 -0.687559 0.721121 186 162 1
-0.082234 0.057803 -0.010498 -0.117059 0.991080 0.063697 237 205 0
-0.079582 0.054748 -0.011124 0.018759 -0.872087 0.488992 185 162 1
-0.083063 0.056967 -0.009501 -0.071534 0.270891 0.959948 248 229 3
-0.077305 0.054740 -0.013262 0.201583 -0.902342 0.380977 194 165 8
-0.078841 0.054499 -0.011760 0.067681 -0.981641 0.178324 184 161 1
-0.078322 0.058006 -0.014549 -0.141102 0.981497 0.129434 221 192 0
-0.079085 0.057786 -0.013720 -0.126150 0.989178 -0.074919 225 197 0
-0.075202 0.057999 -0.017351 -0.128892 0.981771 -0.139687 173 151 34
-0.074976 0.054873 -0.015490 0.108100 -0.972640 0.205635 177 163 2
-0.079867 0.057855 -0.013081 -0.111995 0.966308 -0.231748 230 202 0
-0.076750 0.057849 -0.015870 -0.126590 0.986794 -0.101054 214 188 0
-0.076507 0.054538 -0.013907 0.191196 -0.980277 0.049995 184 162 0
-0.077535 0.057947 -0.015238 -0.104897 0.964527 -0.242247 216 191 2
-0.075978 0.057979 -0.016665 -0.146102 0.988717 -0.033071 207 175 76
-0.080645 0.057901 -0.012436 -0.150785 0.981122 -0.121089 233 204 0
-0.075749 0.054867 -0.014824 0.158323 -0.979123 -0.127488 190 160 0
-0.078083 0.054697 -0.012674 0.088281 -0.994350 0.058956 187 162 2
-0.083672 0.057504 -0.009821 0.083609 0.743719 0.663244 240 208 1
-0.082709 0.055846 -0.009715 0.087429 -0.509541 0.855993 204 177 0
-0.083775 0.057278 -0.009709 0.003704 0.494886 0.868949 246 215 0
-0.083564 0.057591 -0.010115 -0.058531 0.941447 0.332042 240 208 1
-0.082107 0.057734 -0.011548 -0.159926 0.985267 -0.060589 237 203 0
-0.081847 0.055105 -0.010382 0.155646 -0.679096 0.717359 188 162 0
-0.081159 0.054759 -0.010954 0.160335 -0.807305 0.567936 185 160 0
-0.083996 0.056142 -0.009508 0.017289 -0.305767 0.951949 226 199 6
-0.077152 0.054600 -0.014827 0.188327 -0.960988 -0.202572 180 161 4
-0.080795 0.054517 -0.011515 0.176747 -0.909529 0.376189 183 158 0
-0.077377 0.057764 -0.016721 -0.127977 0.991549 -0.021291 199 181 49
-0.078147 0.057659 -0.015977 -0.124680 0.988928 -0.080473 205 192 10
-0.080481 0.057601 -0.013849 -0.125809 0.989986 -0.064026 224 198 0
-0.078678 0.054673 -0.013534 -0.025601 -0.989779 0.140289 188 165 1
-0.075575 0.054429 -0.016157 0.019918 -0.863246 0.504390 177 163 2
-0.076600 0.057833 -0.017485 -0.128820 0.989631 -0.063523 207 175 76
-0.079488 0.054475 -0.012686 0.102290 -0.994054 -0.037328 186 163 0
-0.078932 0.057757 -0.015356 -0.113605 0.957816 -0.263974 218 192 0
-0.082041 0.057656 -0.012503 -0.168277 0.981370 -0.092717 234 203 0
-0.081262 0.057665 -0.013209 -0.120983 0.970051 -0.210629 228 202 0
-0.079714 0.057818 -0.014700 -0.135838 0.989125 -0.056376 220 195 0
-0.077918 0.054251 -0.013956 0.030549 -0.988831 0.145875 187 164 2
-0.076523 0.054756 -0.015561 0.028596 -0.941024 0.337128 172 159 74
-0.080281 0.054497 -0.012065 0.065144 -0.989275 0.130736 183 158 0
-0.085229 0.056947 -0.009937 -0.304041 0.756848 0.578568 248 221 0
-0.084478 0.055497 -0.009791 0.044797 -0.521648 0.851984 205 175 0
-0.083677 0.054980 -0.010196 0.068287 -0.576886 0.813966 194 164 3
-0.079325 0.054398 -0.014255 0.135391 -0.967346 0.214272 184 162 0
-0.081641 0.054036 -0.011943 0.227237 -0.936883 0.265732 188 159 1
-0.078547 0.054356 -0.014928 0.076542 -0.996436 -0.035458 186 160 0
-0.084212 0.057340 -0.011826 -0.183207 0.974841 -0.126966 234 207 0
-0.080107 0.054435 -0.013590 0.138924 -0.985155 0.100848 190 165 0
-0.080864 0.054332 -0.012846 0.282945 -0.958477 0.035565 187 163 0
-0.079543 0.057460 -0.016096 -0.135873 0.985044 -0.105958 200 183 51
-0.081879 0.057414 -0.013973 -0.147652 0.985605 -0.082346 228 199 0
-0.078774 0.057614 -0.016889 -0.120237 0.992560 0.019159 205 192 10
-0.076978 0.054331 -0.016332 -0.060655 -0.858616 0.509017 172 159 74
-0.077998 0.057657 -0.017613 -0.109786 0.993053 -0.042350 199 181 49
-0.082657 0.057463 -0.013317 -0.150481 0.975019 -0.163381 230 202 0
-0.083206 0.054272 -0.010719 0.160150 -0.686306 0.709462 188 163 0
-0.080326 0.057553 -0.015470 -0.117039 0.951907 -0.283153 220 192 0
-0.083432 0.057404 -0.012590 -0.176410 0.979001 -0.102157 235 206 5
-0.084985 0.057329 -0.011152 -0.174735 0.980786 -0.086750 243 214 1
-0.081105 0.057580 -0.014794 -0.182213 0.983243 0.005548 211 197 0
-0.078034 0.054582 -0.015576 0.158139 -0.986694 -0.037771 174 154 59
-0.085716 0.055944 -0.009591 -0.055961 -0.193455 0.979512 226 203 2
-0.082410 0.054199 -0.011476 0.223864 -0.907577 0.355230 186 160 0
-0.086215 0.055228 -0.009883 0.034058 -0.499219 0.865806 202 172 0
-0.079068 0.054412 -0.015802 0.117860 -0.991613 0.053032 184 159 0
-0.086932 0.055865 -0.009792 -0.164015 0.175401 0.970739 237 208 8
-0.082276 0.053779 -0.012638 0.252979 -0.948896 0.188673 185 165 0
-0.083811 0.053711 -0.011221 0.276989 -0.950732 0.139234 184 162 0
-0.084607 0.054113 -0.010831 0.022229 -0.609241 0.792674 187 161 0
-0.079943 0.054280 -0.015123 0.066489 -0.994936 -0.075383 175 158 56
-0.082503 0.057309 -0.014830 -0.192023 0.981386 0.002892 216 194 0
-0.085418 0.054576 -0.010416 0.053914 -0.610268 0.790358 196 164 2
-0.083069 0.054021 -0.012155 0.088334 -0.882857 0.461260 186 159 0
-0.080719 0.054210 -0.014388 0.094842 -0.992684 0.074728 189 162 0
-0.083275 0.057214 -0.014085 -0.137393 0.976362 -0.166857 228 198 0
-0.078391 0.054373 -0.016589 0.088651 -0.956079 0.279380 174 154 59
-0.080171 0.057440 -0.017018 -0.147832 0.985874 0.078723 200 183 51
-0.085599 0.057067 -0.011908 -0.157158 0.964555 -0.211982 237 210 0
-0.080936 0.057234 -0.016197 -0.119203 0.971864 -0.203153 220 192 0
-0.084821 0.057114 -0.012642 -0.214125 0.971996 -0.096821 236 208 0
-0.081494 0.054201 -0.013704 0.204915 -0.978381 -0.027940 185 164 1
-0.081724 0.057361 -0.015586 -0.096098 0.955524 -0.278817 215 183 11
-0.086374 0.057051 -0.011223 -0.207908 0.971725 0.111911 246 214 0
-0.084043 0.057198 -0.013410 -0.185670 0.975106 -0.121227 231 203 0
-0.086825 0.056869 -0.010707 -0.217319 0.890348 0.400066 246 214 0
-0.079459 0.054246 -0.016208 0.103544 -0.854100 0.509697 175 158 56
-0.087618 0.055210 -0.009874 -0.049795 -0.290006 0.955729 223 193 4
-0.081350 0.054201 -0.015287 0.080353 -0.994607 -0.065576 183 161 0
-0.083636 0.053403 -0.012720 0.201718 -0.963286 0.177172 185 164 2
-0.085444 0.056905 -0.013426 -0.200844 0.975996 -0.084229 231 205 0
-0.086216 0.056795 -0.012665 -0.178691 0.971317 -0.156882 236 209 0
-0.086811 0.054309 -0.010493 0.058095 -0.628451 0.775676 194 165 2
-0.080580 0.054325 -0.016091 0.020067 -0.910900 0.412138 160 153 68
-0.083890 0.057034 -0.014913 -0.193494 0.979042 -0.063526 223 197 1
-0.082336 0.057093 -0.016345 -0.061725 0.972163 -0.226030 215 183 11
-0.080136 0.054033 -0.016298 0.042843 -0.618669 0.784483 160 153 68
-0.084429 0.053742 -0.012261 0.211920 -0.948465 0.235593 187 159 1
-0.085998 0.053871 -0.010941 0.057223 -0.581582 0.811472 189 162 1
-0.083121 0.057176 -0.015700 -0.133137 0.985087 -0.108983 195 190 44
-0.084664 0.056969 -0.014184 -0.189916 0.970773 -0.146737 228 202 0
-0.087765 0.056753 -0.011264 -0.209564 0.973248 0.094189 243 215 0
-0.086992 0.056845 -0.012018 -0.130560 0.962081 -0.239486 240 212 0
-0.085174 0.053391 -0.011376 0.127344 -0.787554 0.602944 184 162 0
-0.082879 0.053902 -0.013771 0.214922 -0.965873 -0.144564 184 165 1
-0.082123 0.054114 -0.014591 0.143727 -0.988986 -0.035339 182 163 0
-0.088672 0.055609 -0.010031 -0.152058 0.398308 0.904561 233 204 0
-0.088287 0.054496 -0.010262 0.028607 -0.561787 0.826787 204 176 0
-0.086422 0.053078 -0.011436 0.175767 -0.981615 0.074419 186 161 0
-0.087389 0.053691 -0.011039 0.039432 -0.546355 0.836625 186 161 0
-0.083676 0.053778 -0.014425 0.209899 -0.974413 -0.080391 180 159 6
-0.088395 0.056652 -0.012099 -0.153999 0.982328 -0.106379 239 209 0
-0.085281 0.056705 -0.014930 -0.197658 0.970944 -0.134904 217 196 6
-0.084782 0.053276 -0.013116 0.200005 -0.936582 -0.287770 183 160 1
-0.088204 0.054088 -0.010588 0.053658 -0.651197 0.757010 187 160 0
-0.087608 0.056574 -0.012765 -0.130453 0.959659 -0.249072 237 210 0
-0.086058 0.056729 -0.014260 -0.162594 0.977120 -0.137116 230 199 2
-0.085020 0.053126 -0.012812 0.147772 -0.841376 0.519855 187 159 1
-0.084272 0.053589 -0.013793 0.231736 -0.957421 -0.172172 183 160 1
-0.081982 0.054248 -0.016282 0.127896 -0.961888 0.241691 183 161 0
-0.081162 0.053686 -0.016645 -0.065861 -0.619014 0.782614 160 153 68
-0.089154 0.056461 -0.011319 -0.189021 0.974522 0.120740 242 213 0
-0.086827 0.056612 -0.013509 -0.199439 0.979720 -0.019324 233 203 0
-0.082743 0.054065 -0.015491 0.164465 -0.983819 -0.071073 184 160 10
-0.089906 0.055804 -0.010222 -0.207350 0.696398 0.687048 253 228 0
-0.085820 0.053416 -0.012308 0.197582 -0.946014 0.256939 178 161 0
-0.084503 0.056904 -0.015802 -0.214148 0.975535 -0.049731 187 164 55
-0.086790 0.053146 -0.011278 0.058685 -0.561137 0.825640 186 161 0
-0.089182 0.054640 -0.010173 -0.008833 -0.467808 0.883786 208 182 0
-0.083866 0.057012 -0.016716 -0.159729 0.983873 -0.080500 195 190 44
-0.083246 0.053907 -0.016130 0.288812 -0.913576 0.286300 184 160 10
-0.087922 0.052898 -0.011424 0.078724 -0.794022 0.602769 183 158 1
-0.088222 0.056296 -0.013515 -0.182155 0.978144 -0.100272 232 205 0
-0.089602 0.053861 -0.010676 0.037768 -0.552593 0.832595 190 163 0
-0.090469 0.056187 -0.011437 -0.238513 0.906471 0.348457 243 210 5
-0.091138 0.055568 -0.010442 -0.203578 0.186743 0.961085 242 228 17
-0.087219 0.053137 -0.012349 0.060890 -0.990670 0.121925 191 155 0
-0.089000 0.056353 -0.012876 -0.130767 0.947148 -0.292935 234 205 1
-0.085126 0.056674 -0.016562 -0.233583 0.967153 -0.100269 187 164 55
-0.084137 0.053773 -0.015533 0.267388 -0.963573 -0.005557 180 159 6
-0.085900 0.056605 -0.015822 -0.220729 0.975020 -0.024783 217 196 6
-0.086668 0.056449 -0.015032 -0.142074 0.958325 -0.247848 216 188 23
-0.087449 0.056517 -0.014385 -0.163433 0.983930 -0.071915 235 200 0
-0.089784 0.056459 -0.012255 -0.131687 0.973912 -0.184809 233 208 3
-0.084946 0.053458 -0.014620 0.321448 -0.946588 -0.025363 167 157 65
-0.083375 0.053812 -0.016276 0.293517 -0.898275 0.327030 184 160 10
-0.086404 0.052885 -0.012954 0.253042 -0.967254 0.019707 192 161 0
-0.088014 0.052859 -0.011527 0.110370 -0.993878 -0.005131 183 158 1
-0.090643 0.054325 -0.010318 -0.013487 -0.469811 0.882664 212 185 0
-0.089009 0.052811 -0.011338 0.192071 -0.826258 0.529533 185 160 1
-0.091658 0.054412 -0.010347 -0.127627 -0.163786 0.978206 215 187 0
-0.087084 0.052574 -0.013540 0.017020 -0.972885 0.230662 176 167 70
-0.090990 0.053633 -0.010773 -0.025777 -0.629379 0.776671 197 165 1
-0.091185 0.056248 -0.012327 -0.141349 0.969520 -0.200125 239 206 0
-0.088587 0.052962 -0.012491 0.120289 -0.987610 -0.100775 178 158 0
-0.089610 0.056030 -0.013601 -0.172983 0.984628 0.024181 231 201 2
-0.089827 0.052791 -0.011280 -0.085630 -0.590977 0.802131 185 160 1
-0.090393 0.056129 -0.012976 -0.124668 0.937183 -0.325800 234 205 2
-0.087390 0.056191 -0.015710 -0.254597 0.961551 0.102958 216 188 23
-0.086270 0.052995 -0.014604 0.352503 -0.935259 -0.032134 180 164 1
-0.092368 0.055352 -0.010696 -0.310377 0.520764 0.795280 248 222 1
-0.085506 0.053207 -0.015428 0.356242 -0.933380 0.043507 167 157 65
-0.088847 0.056302 -0.014479 -0.142728 0.981193 -0.129952 224 197 0
-0.088061 0.056220 -0.015131 -0.133936 0.952220 -0.274478 200 169 0
-0.089341 0.052430 -0.011488 0.106746 -0.863360 0.493168 185 160 1
-0.087812 0.052936 -0.013193 -0.108651 -0.938856 0.326719 183 161 3
-0.091741 0.055936 -0.011661 -0.235873 0.906928 0.349063 239 206 0
-0.092006 0.054359 -0.010406 -0.101438 -0.271395 0.957108 215 187 0
-0.089758 0.052468 -0.012062 0.405339 -0.909429 -0.092945 179 158 7
-0.093354 0.055294 -0.011092 -0.269029 0.894452 0.357183 242 212 1
-0.089246 0.052855 -0.013298 0.278455 -0.954276 0.108715 129 114 74
-0.093203 0.054131 -0.010597 -0.243136 0.042898 0.969043 221 197 0
-0.088453 0.052716 -0.013946 -0.126008 -0.969618 0.209674 185 172 15
-0.091001 0.055791 -0.013701 -0.147811 0.972580 -0.179558 221 205 2
-0.093233 0.054146 -0.010618 -0.312284 0.339384 0.887297 221 197 0
-0.090770 0.052547 -0.011771 -0.195907 -0.681421 0.705185 183 158 0
-0.092572 0.055967 -0.012413 -0.235756 0.935594 0.262836 239 210 0
-0.088670 0.055917 -0.015879 -0.159325 0.958261 -0.237386 200 169 0
-0.087643 0.052485 -0.014533 0.019256 -0.998110 0.058354 176 167 70
