21.4544  -90.0138  470.804  -0.791974  -0.329694  -0.513887
54.5957  -84.2573  513.805  0.388716  0.907524  -0.159056
23.4094  -79.5127  466.805  0.838793  0.141732  0.525679
23.7896  -80.0127  466.305  0.800408  0.173515  0.573794
23.726  -79.514  466.301  0.827128  0.146108  0.542689
66.1899  -96.5127  499.805  0.942016  0.105998  -0.318388
23.978  -82.5127  467.305  0.767305  0.282775  0.575571
31.4059  14.987  436.308  0.839855  -0.160468  0.518549
31.2114  15.491  436.791  0.867156  -0.117534  0.483969
31.0939  14.9873  436.805  0.908839  -0.110438  0.402263
46.5994  -91.0379  501.305  0.161947  0.840068  -0.517744
44.1015  -88.6678  504.297  0.161191  0.830824  -0.532681
22.1046  -89.0155  469.3  -0.766695  -0.290014  -0.572775
25.5992  -93.1924  488.805  0.25553  0.854747  -0.451788
25.0995  -93.307  488.305  0.257879  0.852864  -0.454006
25.0966  -93.037  488.81  0.259861  0.853252  -0.452143
123.078  23.4883  496.182  0.700973  -0.0370948  -0.712222
123.603  21.491  496.837  0.402409  -0.292836  -0.86736
123.087  22.9888  496.241  0.662626  -0.0806554  -0.744595
44.5979  -88.4307  504.809  0.163613  0.822201  -0.545176
45.0992  -88.1995  505.305  0.16067  0.822165  -0.546104
66.0753  -95.0126  499.303  0.988908  -0.00254149  -0.14851
66.1398  -95.0128  499.804  0.994413  0.00892753  -0.105183
66.3399  -94.512  502.306  0.999525  -0.0211793  -0.0223961
66.3555  -94.0137  502.304  0.998645  -0.0376302  -0.0359425
66.3389  -94.5127  502.805  0.996994  -0.077333  -0.00479437
21.526  -91.019  471.294  -0.800514  -0.2726  -0.533729
24.1776  -80.0108  465.811  0.767415  0.239143  0.594882
55.0908  -84.0557  514.454  0.100701  0.751582  -0.651908
66.2754  -96.0127  501.305  0.994592  0.102832  -0.0145811
117.096  -60.5085  545.251  0.447632  -0.412797  -0.793237
64.4309  -99.0062  495.316  0.878915  -0.0771694  -0.470694
64.2891  -99.5127  495.305  0.857294  -0.230593  -0.460298
64.0276  -99.5127  494.805  0.84279  -0.156294  -0.515051
21.5991  -78.8867  508.805  0.279076  0.787102  -0.55008
116.309  -60.5131  544.305  0.870664  -0.224097  -0.437863
55.4618  -83.3939  514.867  -0.170217  0.40007  -0.900539
26.5948  -53.0157  447.348  -0.527441  -0.36661  -0.766422
91.5993  -80.8775  524.801  0.023327  0.842418  -0.538319
92.0994  -80.5657  525.297  0.021298  0.828141  -0.560115
92.0997  -80.8922  524.802  0.0360224  0.842275  -0.537844
123.433  -16.0187  521.282  0.986881  -0.0820252  0.139058
22.1116  -79.4958  508.365  0.493843  0.542375  -0.679668
38.1008  -95.8717  489.801  0.193404  0.864413  -0.464096
58.0991  -97.5789  490.805  -0.189186  0.980865  -0.0459665
58.5985  -97.4556  491.305  -0.194367  0.977803  -0.0782492
80.0978  -59.9627  549.813  0.111305  0.73163  -0.672554
31.866  -34.0117  437.306  0.905433  -0.32925  -0.267928
24.8774  -97.0229  473.287  0.814143  -0.273376  -0.512287
25.1329  -97.039  473.574  0.535194  -0.319435  -0.782003
123.25  -13.5057  518.815  0.778931  -0.375411  -0.502328
116.61  -61.0196  545.062  0.748591  -0.237772  -0.618931
94.5991  -75.7343  532.306  0.0406948  0.808973  -0.586435
31.877  -30.5086  434.831  0.438744  -0.36657  -0.820445
31.5905  -32.0026  435.403  0.367014  -0.479317  -0.797217
31.6252  -31.5294  435.165  0.0460637  -0.416975  -0.90775
25.5941  -90.6506  468.69  0.737178  -0.374036  -0.56273
109.097  -74.6601  533.797  -0.118502  0.800852  -0.58702
56.07  -76.5349  511.903  0.431111  0.639743  -0.636295
56.1078  -76.1792  513.318  0.643505  0.744989  0.175762
111.098  -76.0123  529.422  0.0630086  0.761113  -0.645552
110.598  -76.1025  529.29  -0.0133179  0.796749  -0.604163
38.5963  -78.8062  516.814  0.193713  0.803393  -0.563058
38.6031  -79.1786  516.294  0.193037  0.799598  -0.568665
24.5982  -89.5175  467.338  0.164636  -0.505699  -0.846855
25.101  -89.5157  467.506  0.300543  -0.485556  -0.820919
40.0954  -79.8514  515.817  0.185267  0.790735  -0.58345
39.5986  -80.1181  515.307  0.191991  0.784132  -0.59015
80.5994  -79.9062  524.805  0.136237  0.810571  -0.569574
78.5953  -74.9505  531.32  0.147425  0.803793  -0.576353
78.5962  -75.3215  530.816  0.169602  0.788503  -0.591184
78.0961  -75.5891  530.319  0.155552  0.792498  -0.589704
25.6844  -89.9911  468.341  0.99494  -0.0370779  0.0933811
77.6006  -73.7889  532.797  0.0981688  0.8058  -0.583994
108.593  -76.9924  528.297  -0.193999  0.870472  -0.452374
108.663  -76.7352  528.78  -0.248645  0.873836  -0.417835
33.0291  -25.5146  433.804  0.96406  -0.191719  -0.183936
25.0991  -102.554  476.805  0.580466  -0.552118  -0.598519
78.0997  -74.1994  532.303  0.101581  0.814524  -0.571167
80.1021  -80.9012  523.295  0.160354  0.814828  -0.557083
71.5985  -65.5956  541.808  0.12996  0.740658  -0.659193
71.1004  -65.0743  542.299  0.134208  0.7481  -0.649873
78.0955  -77.0373  528.319  0.139511  0.807764  -0.572761
77.5989  -76.6137  528.806  0.134661  0.809698  -0.571188
25.1098  -88.0108  466.457  0.339905  -0.521472  -0.782644
67.3228  -70.5127  534.305  0.908756  0.357353  -0.215547
110.598  -70.6598  538.803  -0.169379  0.814406  -0.555025
22.1213  -79.9968  508.073  0.564363  0.427737  -0.70607
21.5844  -80.0224  507.648  0.525749  0.395195  -0.753265
109.099  -68.0738  542.304  0.00616339  0.749075  -0.662456
36.5984  -97.3842  486.307  0.209025  0.867163  -0.452036
25.598  -86.5382  500.308  0.250814  0.820542  -0.513618
26.597  -85.239  502.81  0.257307  0.812498  -0.523106
26.599  -85.565  502.306  0.251317  0.814205  -0.523364
34.5967  -89.9135  498.811  0.216419  0.846232  -0.486881
84.0991  -70.763  537.806  0.0854992  0.772706  -0.62898
78.0977  -75.2292  530.814  0.105278  0.809828  -0.577144
77.6011  -75.5449  530.294  0.081862  0.814874  -0.573829
77.5999  -75.1851  530.8  0.0794605  0.812779  -0.577128
37.0995  -97.5075  486.305  0.207116  0.868115  -0.451088
77.0988  -74.0802  532.307  0.086873  0.814166  -0.574097
77.6006  -74.1444  532.297  0.095367  0.816544  -0.569351
33.1021  -86.7355  503.299  0.231769  0.814053  -0.532542
121.099  23.9833  495.891  -0.456591  -0.469164  -0.755916
120.599  23.9848  496.269  -0.557956  -0.45568  -0.693571
33.2096  -24.0114  433.307  0.985705  -0.130707  -0.106307
28.3835  -76.5117  514.301  0.616756  0.106007  -0.779984
122.13  24.4998  495.277  0.130123  -0.284207  -0.949892
121.598  24.9858  495.217  -0.104578  -0.278452  -0.95474
115.803  -59.5086  548.815  0.735268  0.262716  0.624789
48.0984  -92.2176  499.808  0.135438  0.845012  -0.517312
95.7357  -81.3353  524.309  0.0365956  0.840282  -0.540914
95.1549  -81.685  523.71  0.0239997  0.851443  -0.523898
90.099  -72.8721  535.806  0.0537242  0.794311  -0.605131
72.5991  -85.0127  513.736  0.0701982  0.877033  -0.475274
73.0995  -84.9938  513.802  0.0224707  0.868414  -0.49533
59.456  -80.026  512.799  0.79115  0.544593  0.278388
30.0924  11.4796  433.063  -0.730057  0.250012  -0.636011
30.2698  11.4767  432.815  -0.765388  0.286523  -0.576269
29.9713  10.9856  432.831  -0.758148  0.23779  -0.60718
103.599  -70.1895  539.806  -0.0214132  0.786361  -0.617396
20.604  -80.9486  506.297  0.351134  0.725949  -0.591357
72.0991  -85.1633  513.305  0.0844264  0.85031  -0.519467
72.5993  -85.2363  513.305  0.105598  0.866598  -0.487705
72.5988  -85.5354  512.807  0.0874185  0.843486  -0.52999
27.1898  -96.0062  473.813  0.615349  -0.502842  -0.607038
90.5981  -68.9512  540.817  0.0581726  0.778618  -0.624796
90.5987  -68.559  541.31  0.061566  0.779279  -0.623645
103.599  -68.5603  541.812  -0.0010583  0.767151  -0.641466
82.1056  -54.4906  554.851  0.163938  0.585052  -0.794253
71.0992  -86.6861  510.805  0.130939  0.807723  -0.574838
72.5974  -86.1939  511.813  0.112972  0.817273  -0.565069
70.5998  -62.848  544.802  0.140803  0.736033  -0.66214
70.1017  -62.7496  544.795  0.159491  0.723928  -0.671186
20.1037  -79.8865  506.824  0.421251  0.637686  -0.644907
21.0851  -93.0182  472.843  -0.758353  -0.284152  -0.58665
28.8786  12.9883  434.802  -0.781661  0.165337  -0.60139
28.7695  12.4883  434.802  -0.789291  0.172504  -0.589289
24.5991  -102.442  476.305  0.595458  -0.561849  -0.574243
24.5751  -102.006  475.813  0.626016  -0.536944  -0.565505
28.5432  11.4856  434.812  -0.820343  0.149026  -0.552113
125.253  15.9873  503.305  0.922242  0.211931  0.32335
125.403  15.4822  503.297  0.886518  0.261185  0.381928
125.453  15.989  502.806  0.911288  0.263141  0.316718
81.0939  -55.0307  553.973  0.296048  0.608464  -0.736292
38.1006  -92.8514  495.302  0.183678  0.855405  -0.484298
103.599  -67.3459  543.304  -0.0207555  0.773432  -0.63354
92.5989  -70.6931  538.807  0.0490175  0.776907  -0.627704
60.6006  -89.8624  506.332  -0.00860531  0.777383  -0.628969
61.0959  -89.0745  507.809  0.290254  0.861647  -0.416313
71.5985  -86.4078  511.309  0.0933979  0.829956  -0.549954
71.098  -86.3517  511.314  0.0812464  0.845764  -0.527335
61.5929  -88.5281  508.812  -0.0992298  0.781428  -0.616056
75.098  -74.9012  530.81  0.119955  0.814212  -0.56804
74.5984  -74.8249  530.808  0.130979  0.809035  -0.572981
74.6017  -74.4872  531.295  0.13971  0.809301  -0.570538
28.0991  10.4873  435.197  -0.824711  0.175647  -0.537587
28.0991  10.9873  435.427  -0.917965  0.152476  -0.366185
91.599  -70.229  539.307  0.0439197  0.776804  -0.628209
125.045  16.9873  502.805  0.800711  0.44666  0.399195
125.207  16.4873  503.305  0.935645  0.27027  0.226985
125.146  16.8763  502.818  0.729495  0.608964  0.31145
96.6  -78.3405  528.791  0.0372334  0.8039  -0.593598
125.506  3.48926  508.308  0.877695  -0.288438  -0.382695
122.596  22.9847  495.992  0.0272142  -0.430666  -0.902101
122.104  23.4988  495.774  -0.159462  -0.44539  -0.881022
122.59  23.4837  495.737  0.349243  -0.272831  -0.896433
113.599  37.2393  495.305  0.430761  0.730124  0.530438
24.0931  -88.5167  466.865  -0.411703  -0.458186  -0.78776
24.0884  -89.0221  467.157  -0.331343  -0.475061  -0.815186
125.121  17.9862  501.804  0.911928  0.262193  0.315662
125.081  17.4838  502.301  0.864051  0.323238  0.385918
80.0983  -59.5044  550.311  0.109535  0.731501  -0.672984
81.5962  -62.0152  547.821  0.126415  0.744229  -0.655852
81.0986  -61.9453  547.808  0.115058  0.741326  -0.661209
26.1786  -100.504  476.318  0.651931  -0.425521  -0.627629
75.5974  -78.7701  525.31  0.156586  0.840048  -0.519424
76.1039  -78.8856  525.293  0.18543  0.842983  -0.50497
112.486  -59.5127  543.305  -0.942592  -0.252162  -0.218938
112.599  -59.5934  543.805  -0.763157  -0.606985  -0.221723
112.138  -59.0149  543.808  -0.770789  -0.47983  -0.419102
112.674  -58.0039  542.795  -0.819801  0.291368  -0.492981
112.794  -58.5193  542.3  -0.827609  0.228126  -0.512857
25.1016  -101.008  475.515  0.653703  -0.443788  -0.612963
60.5997  -88.9407  507.802  0.127594  0.869001  -0.478076
37.0923  -96.1476  488.82  0.212883  0.861438  -0.461092
22.5991  -70.0127  459.397  -0.411018  -0.232577  -0.88146
22.8053  -69.5127  459.305  -0.82571  -0.0571551  -0.561191
22.7575  -70.0127  459.324  -0.730365  -0.215727  -0.648096
81.1082  -56.0113  553.7  0.499666  0.0694446  -0.86343
112.595  -60.5127  542.805  -0.882177  -0.19257  -0.429744
112.32  -61.5127  543.805  -0.91347  -0.205769  -0.351045
112.607  -61.5023  543.326  -0.833856  -0.246871  -0.4937
28.6979  -41.5394  440.725  -0.159489  -0.317861  -0.934627
24.5953  -88.5181  466.702  -0.137174  -0.533347  -0.8347
28.1098  -54.5139  447.532  0.502003  -0.536603  -0.67827
62.0969  -90.121  506.292  0.148166  0.818415  -0.555196
62.6049  -90.2152  506.289  0.163112  0.875407  -0.455036
62.5894  -90.4276  505.82  0.118916  0.883507  -0.453072
40.5978  -99.53  483.808  0.199503  0.872065  -0.446879
45.1014  -97.0579  490.299  0.168847  0.874016  -0.455616
43.5994  -101.284  480.301  -0.0801936  0.991451  0.102931
78.601  -63.404  545.793  0.105789  0.748276  -0.654898
33.5988  -95.8693  487.806  0.209974  0.860534  -0.464105
33.5994  -95.601  488.305  0.214103  0.860677  -0.461947
23.5987  -88.0131  466.972  -0.593116  -0.380395  -0.709587
43.5995  -95.6914  492.304  0.167374  0.869285  -0.465111
78.6006  -63.0029  546.251  0.110216  0.743962  -0.659069
25.0941  -87.0059  465.819  0.275867  -0.433999  -0.857638
36.5974  -96.3065  488.31  0.198465  0.858686  -0.472514
37.097  -96.4244  488.31  0.206486  0.859218  -0.46809
112.592  -59.513  542.803  -0.975238  -0.0397469  -0.217555
22.5869  -78.0204  510.306  0.254169  0.645155  -0.720537
125.565  15.488  501.309  0.975349  -0.0626697  -0.21158
125.554  15.9873  501.306  0.989458  0.0323185  -0.141167
125.294  16.4896  502.808  0.936315  0.248664  0.247955
34.5987  -93.969  491.806  0.207892  0.855546  -0.474154
62.5922  -88.5941  508.289  -0.23851  0.71834  -0.653529
80.6015  -78.9008  526.293  0.11567  0.806126  -0.580329
32.8951  2.98959  430.798  0.943835  0.158202  -0.290082
32.9831  2.48843  430.799  0.982632  0.114584  -0.145963
32.7785  2.48312  430.315  0.894624  0.178314  -0.409698
125.677  15.4861  502.305  0.991868  0.125021  0.0238257
24.6007  -88.0138  466.37  -0.1042  -0.539623  -0.835434
32.9393  1.48755  431.306  0.982825  -0.0379553  0.180597
33.0065  1.9873  431.305  0.993285  -0.00846495  0.115386
32.7883  1.4873  431.805  0.956192  -0.0477675  0.288816
43.1006  -88.7855  503.801  0.169815  0.836018  -0.521764
44.5995  -88.758  504.304  0.156363  0.834546  -0.528284
45.1029  -88.54  504.793  0.159773  0.82706  -0.538929
125.586  15.4887  502.807  0.914794  0.259728  0.309343
125.711  14.4852  503.303  0.917215  0.257554  0.303945
125.72  14.9903  502.81  0.976902  0.168335  0.131625
36.0986  -96.1946  488.306  0.197153  0.858519  -0.473367
61.0956  -88.0682  509.314  0.250504  0.764212  -0.594329
38.601  -80.9574  513.8  0.202861  0.796908  -0.569021
38.6009  -80.5968  514.301  0.21084  0.792604  -0.572124
39.1019  -80.7311  514.298  0.201015  0.798371  -0.567623
61.1011  -88.4889  508.793  0.240504  0.759999  -0.603788
34.5998  -96.6486  486.804  0.200455  0.866102  -0.457913
112.583  -57.5207  543.243  -0.561157  0.431512  -0.706329
27.1624  -54.5104  447.81  -0.399409  -0.406465  -0.821742
32.6045  -88.492  500.293  0.216221  0.831793  -0.511242
45.5962  -87.9566  505.815  0.159611  0.825924  -0.540715
73.1017  -87.0212  511.587  0.616702  0.115141  -0.778731
30.5788  23.4848  436.302  0.932935  0.238854  0.269408
46.6003  -88.4928  505.302  0.16385  0.823655  -0.542905
21.5992  -80.5158  507.41  0.452783  0.515588  -0.727432
32.1008  -88.3545  500.301  0.218996  0.831318  -0.510834
23.5991  -90.513  468.325  -0.551605  -0.407834  -0.727602
21.0906  -80.0182  507.305  0.53862  0.360211  -0.761667
46.599  -87.8455  506.306  0.174346  0.830941  -0.528337
28.4592  8.9873  433.805  -0.549545  0.366072  -0.750994
28.5991  9.4873  433.947  -0.635159  0.350812  -0.688116
109.6  -67.1633  543.324  -0.0309533  0.760318  -0.648813
108.598  -66.4208  544.29  -0.0375182  0.768687  -0.638524
107.599  -66.8595  543.803  -0.0223771  0.767896  -0.640184
25.4768  -88.0166  466.799  0.64988  -0.43448  -0.623605
57.0984  -87.5575  509.309  0.129214  0.835622  -0.533891
56.1032  -87.092  509.789  0.136094  0.828192  -0.54367
73.0993  -85.9252  512.304  0.117194  0.814705  -0.56791
29.2692  21.4873  435.303  -0.829367  -0.02403  -0.558187
29.5908  21.489  434.966  -0.656658  -0.0259928  -0.75374
29.6178  20.9902  434.951  -0.722587  -0.0448825  -0.689821
35.1081  -85.612  505.783  0.2149  0.820769  -0.529298
30.2306  9.48196  432.316  -0.664479  0.220763  -0.713954
65.0991  -86.2517  510.806  0.287702  0.957346  -0.0267671
65.5913  -86.3793  510.803  0.1601  0.985698  -0.0525985
65.6034  -86.423  510.313  0.157942  0.961795  -0.223617
28.3708  22.9873  436.305  -0.844494  -0.137884  -0.517512
28.6274  23.4873  435.805  -0.786931  0.0732369  -0.612679
65.5991  -86.3654  511.305  0.134772  0.990433  -0.0296601
20.604  -81.3148  505.797  0.303991  0.778659  -0.548889
21.6001  -81.3411  506.304  0.291209  0.78575  -0.545705
90.5992  -72.5196  536.304  0.0439694  0.792064  -0.608852
30.6042  -24.5116  431.719  -0.2837  -0.33129  -0.899867
30.3007  23.9915  435.336  0.804954  0.221641  -0.550386
88.0984  -73.8492  534.312  0.0609318  0.794777  -0.603836
88.5991  -73.5082  534.806  0.056893  0.791752  -0.608188
22.0991  -78.5151  509.805  0.176898  0.782252  -0.597318
22.098  -78.6835  509.305  0.22628  0.873192  -0.431663
22.0985  -81.1716  506.807  0.279005  0.785653  -0.552182
72.0985  -85.4909  512.816  0.0370575  0.8423  -0.537734
107.599  -72.4489  536.809  -0.0114899  0.781206  -0.624168
107.099  -72.4645  536.799  -0.0165806  0.791983  -0.610318
52.1004  -86.1739  510.301  0.136941  0.809065  -0.571543
29.1006  20.4872  435.656  -0.731672  -0.0114067  -0.681562
74.0971  -85.7071  512.812  0.211557  0.736598  -0.642392
74.1  -86.0051  512.523  0.340724  0.531902  -0.775234
88.5987  -71.9764  536.809  0.0737482  0.790425  -0.608104
88.5995  -72.3656  536.302  0.0745069  0.791381  -0.606766
23.6008  -81.9956  506.301  0.232697  0.802671  -0.549155
29.097  -81.2314  509.81  0.25318  0.788415  -0.560626
28.5929  -81.0626  509.819  0.246567  0.789971  -0.561383
109.1  -66.7822  543.813  -0.0412633  0.775787  -0.629644
108.599  -66.8147  543.806  -0.0396212  0.77558  -0.630005
30.5957  22.4896  436.811  0.886007  0.202901  0.41692
30.7152  21.9861  436.803  0.859402  0.216261  0.463314
30.8593  22.4859  436.298  0.916063  0.261606  0.303961
115.428  -61.0127  549.805  0.729607  0.210272  0.650737
27.5974  -81.147  509.309  0.218826  0.790451  -0.572104
28.0963  -80.9193  509.813  0.226322  0.789833  -0.570037
28.0977  -81.2853  509.309  0.227299  0.788826  -0.571042
48.6009  -92.61  499.298  0.128177  0.846398  -0.516895
79.0963  -80.6862  523.316  0.153721  0.806896  -0.57034
79.0993  -81.0535  522.805  0.139166  0.806209  -0.57503
57.0941  -86.4695  510.837  0.101964  0.804183  -0.58557
57.0992  -86.87  510.305  0.110804  0.800374  -0.589172
56.0994  -87.4005  509.304  0.133679  0.836463  -0.531469
116.491  -61.5127  548.805  0.695107  0.270844  0.665935
117.099  -62.0127  548.416  0.576664  0.289158  0.764098
116.2  -60.0157  543.8  0.878242  -0.240691  -0.413229
58.098  -87.6793  509.312  0.0796166  0.829797  -0.552357
52.0989  -95.4724  495.306  0.123955  0.858985  -0.496769
53.5987  -95.6955  495.307  0.125421  0.860454  -0.49385
53.0994  -95.3435  495.804  0.121232  0.865932  -0.485247
53.5988  -95.4097  495.807  0.11944  0.8621  -0.492461
115.599  -61.0127  549.623  0.710599  0.235194  0.663123
36.6029  -96.5931  487.797  0.197643  0.859603  -0.471189
114.599  -59.5127  550.158  0.699859  0.265683  0.663031
116.123  -59.5056  543.318  0.883726  -0.252802  -0.393853
21.1004  -80.7756  506.804  0.351589  0.723883  -0.593616
22.081  -80.4955  507.721  0.438132  0.600036  -0.669326
19.0992  -88.0939  494.305  0.274895  0.826546  -0.491177
31.0991  -103.629  477.805  -0.133959  -0.964389  -0.228053
98.0991  -63.8449  547.309  0.00890114  0.754803  -0.655892
98.5991  -63.8501  547.308  0.00563326  0.755624  -0.654982
55.6014  -86.998  509.797  0.149084  0.819663  -0.553106
46.0993  -91.5556  500.305  0.155808  0.841877  -0.516688
46.5993  -91.6503  500.305  0.160894  0.843011  -0.513269
77.5921  -79.3846  524.841  0.127045  0.836105  -0.533655
52.0988  -92.8747  499.807  0.114054  0.868493  -0.482402
68.0983  -64.9286  541.809  0.193436  0.761576  -0.618534
26.0988  -92.5353  490.306  0.241285  0.8516  -0.465358
66.7753  -65.9206  539.331  0.945061  0.158434  -0.285934
101.599  -64.7605  546.306  -0.0060393  0.757676  -0.652604
100.599  -64.3198  546.807  0.0129561  0.746843  -0.664874
101.599  -63.8975  547.3  0.00958096  0.748188  -0.663418
118.487  -41.0129  535.805  -0.726847  -0.268967  -0.631941
97.5993  -63.4011  547.801  0.0241979  0.741932  -0.670038
97.0989  -62.918  548.311  0.0224075  0.739601  -0.672673
97.5989  -62.936  548.311  0.0266871  0.737501  -0.674819
77.0991  -56.0127  552.434  -0.102356  0.691453  -0.715133
81.1004  -57.0054  553.189  0.132795  0.699464  -0.702222
120.274  -29.5108  528.81  -0.708131  -0.293086  -0.642379
98.5991  -62.0585  549.306  0.024693  0.736263  -0.676245
98.5991  -62.5146  548.809  0.0235917  0.737144  -0.675324
98.0991  -62.5001  548.806  0.0265296  0.736461  -0.67596
86.0998  -84.5184  516.215  0.0248667  0.615746  -0.787552
85.0932  -85.0345  516.041  -0.0296102  -0.159421  -0.986767
85.6058  -84.4852  516.197  0.0358536  0.420659  -0.90651
101.599  -63.4497  547.804  0.0102347  0.747735  -0.663919
84.0993  -84.5151  516.151  0.00180154  0.412038  -0.911165
84.0993  -84.0246  516.472  0.0159232  0.628596  -0.777569
119.927  -27.5139  528.303  -0.732473  -0.291833  -0.615075
119.506  -27.5125  528.806  -0.73384  -0.292656  -0.613051
110.098  -70.3951  539.299  -0.102545  0.806873  -0.581756
109.598  -70.4505  539.296  -0.0605826  0.801771  -0.594553
29.6018  -88.0208  499.799  0.229332  0.825931  -0.515019
23.1872  -70.0069  458.821  -0.745788  -0.22176  -0.62819
23.5976  -70.0134  458.341  -0.736428  -0.24202  -0.631744
115.605  -60.0158  542.912  0.676422  -0.413805  -0.609277
66.6101  -67.5021  538.297  0.698487  0.496157  -0.515698
67.1208  -66.8181  539.31  0.374309  0.645735  -0.665521
86.6003  -85.0344  516.027  0.00801283  -0.101222  -0.994832
86.0969  -85.4905  516.228  0.0138657  -0.469609  -0.882766
85.5986  -85.0165  516.045  -0.010269  -0.0797461  -0.996762
19.5994  -88.5465  493.805  0.258903  0.83402  -0.487217
22.1004  -80.8183  507.303  0.289445  0.774699  -0.562195
99.0991  -63.4213  547.807  0.00455452  0.755523  -0.655106
24.9634  -76.5133  463.304  0.755677  0.243565  0.607971
124.1  10.4824  502.45  0.116656  -0.521559  -0.845203
123.593  10.9806  502.174  -0.17441  -0.524127  -0.83359
123.626  -13.5118  519.812  0.989732  -0.000295061  0.142936
79.0998  -62.5828  546.801  0.101541  0.741296  -0.663453
25.6106  -63.006  452.899  -0.56911  -0.359784  -0.739371
25.6027  -62.5092  452.664  -0.606839  -0.340822  -0.718044
24.0427  -76.0138  464.303  0.78908  0.243849  0.563817
41.6036  -79.8504  516.299  0.169684  0.824997  -0.539062
41.0974  -79.73  516.31  0.190536  0.793978  -0.577317
41.0925  -79.3972  516.813  0.207594  0.832496  -0.513669
26.1019  -65.5047  453.852  -0.267124  -0.467233  -0.842816
26.5943  -64.5163  453.185  -0.0761467  -0.476926  -0.875639
26.5969  -65.0103  453.462  0.0634882  -0.495706  -0.866167
65.959  -97.0127  499.305  0.955413  0.0691992  -0.28705
66.1002  -96.5126  499.653  0.858437  0.103621  -0.502344
23.8737  -77.5127  465.305  0.835437  0.265761  0.481058
39.599  -79.7505  515.806  0.17533  0.799221  -0.574896
39.5987  -79.3897  516.307  0.173735  0.800743  -0.573259
78.5987  -80.9624  522.808  0.129733  0.801271  -0.584066
78.5983  -81.3281  522.309  0.132201  0.802346  -0.582034
26.0998  -66.0112  454.139  -0.308676  -0.463892  -0.830376
32.205  -33.517  438.303  0.971417  -0.214024  -0.102681
123.375  -14.5116  519.807  0.85399  -0.339475  -0.394281
66.1333  -96.0132  499.812  0.966165  0.00123399  -0.257922
66.0031  -96.0115  499.307  0.956588  -0.149182  -0.250368
65.945  -95.5108  498.809  0.96277  -0.111854  -0.246094
31.1134  -31.5483  435.181  0.102537  -0.435528  -0.894316
31.101  -32.0276  435.407  0.0688842  -0.47957  -0.874796
30.593  -32.003  435.304  0.0970071  -0.484453  -0.869422
24.8619  -75.0137  462.803  0.755405  0.263349  0.600009
65.4447  -97.0129  497.292  0.947086  -0.0187591  -0.32043
65.6055  -97.5127  497.805  0.938769  -0.0231049  -0.343772
65.4768  -97.5127  497.305  0.940326  -0.0107414  -0.340105
27.1009  -64.5055  453.266  0.234612  -0.497719  -0.835005
26.0854  -64.5195  453.332  -0.443048  -0.400425  -0.802103
66.6616  -65.596  538.829  0.972357  0.144218  -0.183638
31.5936  -34.5119  440.293  0.874195  -0.0236453  0.484998
26.6454  -54.0148  451.301  0.781601  0.252732  0.570286
30.6031  -33.0346  435.992  0.0913049  -0.50881  -0.856023
17.8345  -90.0168  488.801  0.822379  0.561179  -0.0936551
17.9118  -90.0558  488.297  0.719925  0.689999  -0.0748914
17.557  -89.5885  488.765  0.567192  0.788774  -0.236915
125.344  13.4839  501.799  0.91123  -0.199581  -0.360315
123.44  -15.0128  521.303  0.968699  0.0523837  0.242648
123.475  -14.0096  520.813  0.939311  0.113977  0.323579
21.0996  -88.145  495.304  0.272237  0.826181  -0.493266
28.3501  -32.5096  436.314  -0.681836  -0.268109  -0.6806
28.0536  -33.0127  436.805  -0.736852  -0.259067  -0.624446
125.098  11.4914  502.38  0.535434  -0.433898  -0.724598
124.598  10.9887  502.315  0.398337  -0.474763  -0.784811
65.854  -97.5127  498.805  0.989214  0.0509894  -0.13732
65.8264  -97.5127  498.305  0.97152  0.045201  -0.232606
65.7661  -97.0136  498.309  0.987245  0.0763265  -0.139721
39.599  -77.9965  518.395  -0.0350842  0.26955  -0.962347
40.1016  -77.5147  518.181  -0.289847  -0.238417  -0.926901
40.5858  -77.5134  518.078  -0.0939728  -0.468518  -0.878442
123.325  -13.0135  520.803  0.897475  0.164191  0.409365
42.0976  -101.146  477.808  0.180868  0.893342  -0.411372
81.0979  -65.0428  544.314  0.0987856  0.753982  -0.649425
81.0988  -65.4784  543.807  0.105315  0.755468  -0.646666
120.818  -27.0127  530.305  0.782805  0.239252  0.574435
42.5998  -79.5842  517.308  0.2436  0.94405  -0.222323
43.1043  -79.7252  517.302  0.280318  0.933919  -0.221848
29.1028  -32.0115  435.525  -0.422671  -0.36113  -0.831224
66.0647  -95.512  499.307  0.976948  -0.0588446  -0.205207
66.321  -94.5121  501.806  0.994635  -0.0630349  -0.0820186
76.0992  -80.2503  523.304  0.109957  0.7843  -0.610559
76.1021  -80.6576  522.784  0.108178  0.795225  -0.596586
66.1826  -94.5125  500.303  0.997815  -0.0108139  -0.0651806
66.1821  -95.0128  500.306  0.997643  0.0130342  -0.0673637
123.549  -13.5097  520.313  0.984794  0.0452527  0.167731
123.572  -14.0122  520.306  0.98741  0.0414532  0.15265
25.4022  -93.4954  470.826  0.983931  -0.171209  -0.050673
28.4089  12.4912  435.291  -0.79752  0.15703  -0.582497
123.411  -13.5135  520.806  0.912031  0.139186  0.385781
29.5946  -33.4893  436.12  0.0308356  -0.463717  -0.885447
29.6021  -32.503  435.616  -0.185004  -0.430502  -0.883426
29.6019  -32.0062  435.371  -0.175397  -0.438821  -0.88129
66.1921  -94.0121  500.304  0.994332  -0.0262193  -0.103032
49.527  -102.518  481.308  0.662621  -0.404094  -0.630588
65.988  -95.0117  498.811  0.977448  -0.0250423  -0.209685
66.1409  -95.5129  499.808  0.99267  -0.00750589  -0.120625
40.1066  -78.0359  518.264  0.0713727  0.215879  -0.973808
65.6326  -96.5096  497.803  0.971188  0.00381858  -0.238285
41.6051  -101.876  476.298  0.393241  0.801098  -0.451224
41.6021  -101.566  476.801  0.329513  0.787972  -0.520117
28.8422  -47.5102  445.81  0.701241  0.300763  0.646376
94.5993  -76.4665  531.302  0.0336416  0.806643  -0.59008
76.0983  -84.2256  515.311  0.0729343  0.815619  -0.573974
23.9537  -79.014  465.802  0.810571  0.201719  0.549803
43.5911  -79.0403  518.272  -0.10719  -0.234735  -0.966131
40.6  -78.0198  518.283  0.0442857  -0.341155  -0.938963
16.5991  -88.7914  489.805  0.175022  0.81818  -0.547675
28.5819  -49.5192  447.131  0.70355  0.278222  0.653919
110.102  -70.0078  539.826  -0.0814566  0.803516  -0.589683
30.5914  -76.508  515.545  0.490598  0.49923  -0.714201
29.5991  -76.0392  515.305  0.414208  0.57875  -0.702481
29.5991  -75.8541  515.805  0.41854  0.761875  -0.494339
23.6217  -79.0127  466.305  0.799696  0.220892  0.558295
27.5096  -65.0179  453.798  0.698085  -0.389314  -0.600926
29.1165  10.9845  433.919  -0.754071  0.116575  -0.646364
26.0978  -65.0098  453.585  -0.291835  -0.450896  -0.84352
90.0983  -68.9155  540.814  0.0627194  0.777362  -0.62592
69.5623  -73.5133  524.8  0.841737  0.108651  0.528842
69.875  -73.511  524.313  0.834929  0.118895  0.537362
26.5984  -65.5252  453.746  0.017459  -0.48081  -0.876651
26.0924  -64.0177  453.071  -0.382904  -0.424824  -0.82031
25.6066  -63.5071  453.147  -0.533881  -0.384082  -0.753294
26.0971  -63.5148  452.805  -0.375068  -0.430756  -0.820837
20.2776  -92.5127  473.805  -0.773159  -0.366867  -0.517334
20.4094  -92.0127  473.305  -0.790909  -0.300887  -0.53285
28.5999  -38.9974  439.345  -0.239016  -0.635929  -0.733803
72.7263  -77.027  521.305  0.857046  0.368996  0.359603
125.815  7.48186  506.298  0.95074  -0.188606  -0.246012
28.401  -47.5132  446.304  0.720259  0.27489  0.636917
28.3344  -48.5138  446.809  0.654581  0.354365  0.667794
70.3054  -74.0122  523.807  0.815102  0.14578  0.560675
25.6013  -94.764  485.802  0.251564  0.864142  -0.435859
25.1015  -94.6162  485.801  0.255015  0.862786  -0.43654
70.1241  -75.0133  524.303  0.827209  0.133438  0.545821
70.1746  -75.5054  524.333  0.841381  0.166132  0.514275
70.5737  -75.0127  523.785  0.832541  0.130577  0.538353
27.3607  -65.9996  454.325  0.440203  -0.499016  -0.746461
74.0707  -79.5324  521.249  0.741836  0.385944  0.548385
125.766  6.98545  508.303  0.951021  0.159818  0.264609
48.0957  -103.511  480.425  0.609512  -0.33161  -0.72009
51.1006  -97.5636  491.3  0.14514  0.868308  -0.474315
51.5999  -97.3727  491.803  0.143039  0.86654  -0.478172
74.0673  -80.0018  521.408  0.645572  0.204837  0.735717
27.1001  -94.1675  487.804  0.247725  0.856559  -0.452702
27.5984  -94.0423  488.307  0.241025  0.857016  -0.455445
27.5997  -94.3089  487.804  0.239553  0.859141  -0.452208
26.5977  -95.2928  485.308  0.241043  0.867074  -0.435984
31.5995  9.48852  431.56  0.103118  0.253078  -0.961935
74.8417  -80.5238  520.301  0.858044  0.512621  0.031308
74.5481  -80.0359  520.321  0.82564  0.558824  -0.0776828
108.599  -69.6961  540.313  -0.0161264  0.790956  -0.611661
125.373  7.48033  508.794  0.818076  0.299841  0.490762
80.0992  -60.4299  549.305  0.112451  0.731947  -0.672018
63.1036  -92.018  502.488  -0.567941  0.679798  -0.464023
63.1071  -91.8024  502.811  -0.520894  0.733439  -0.436734
63.59  -91.7366  502.299  -0.561177  0.737213  -0.376295
122.982  -16.5127  520.807  0.747613  -0.440818  -0.496743
118.937  25.9873  496.305  -0.74363  -0.528941  -0.408945
119.309  25.4869  496.304  -0.763027  -0.509148  -0.398193
82.0992  -59.8391  550.305  0.11143  0.723561  -0.681207
48.7079  -103.018  480.791  0.660007  -0.348304  -0.665638
119.115  -41.501  535.332  -0.636067  -0.295034  -0.713003
56.0992  -86.0306  511.303  0.112943  0.814231  -0.569449
70.988  -74.0129  522.801  0.911375  0.111571  0.396165
71.0175  -73.5178  522.299  0.956872  0.195945  0.214477
27.5999  -94.5652  487.304  0.233983  0.868721  -0.43655
28.1  -94.4466  487.804  0.237217  0.862677  -0.446672
65.594  -91.8907  501.308  0.261995  0.817892  -0.512261
123.53  -13.0085  520.311  0.970135  0.0482901  0.23771
17.0852  -88.5961  490.317  0.312712  0.808853  -0.497964
70.5515  -73.5129  523.305  0.823003  0.164002  0.543848
70.2148  -73.5113  523.809  0.818068  0.147437  0.555902
27.5963  -95.0606  486.311  0.240135  0.866261  -0.438094
56.5998  -85.7294  511.81  0.103575  0.817848  -0.566036
56.0997  -85.3358  512.3  0.0690269  0.809663  -0.582821
56.596  -85.3681  512.321  0.116625  0.811055  -0.573226
57.0938  -86.1322  511.32  0.143645  0.823324  -0.549094
24.9427  -89.0131  469.305  0.744907  0.301525  0.595143
123.342  -14.0074  519.311  0.839699  -0.331986  -0.429758
29.103  -36.0358  437.876  0.0288837  -0.48029  -0.876634
73.6077  -79.5147  519.718  0.320686  0.356737  -0.877439
123.625  -13.0129  519.808  0.980874  -0.00139336  0.194641
29.5943  -38.0044  438.815  0.256448  -0.410839  -0.874897
29.6013  -37.5152  438.584  0.254299  -0.417528  -0.872354
24.5471  -89.0131  469.805  0.752187  0.300641  0.58637
31.5942  11.4832  432.135  0.0942782  0.287932  -0.952999
31.5967  11.9831  432.291  0.137141  0.29961  -0.944154
32.0994  11.9832  432.489  0.569767  0.246056  -0.784106
29.9363  10.4832  432.819  -0.758528  0.0542433  -0.649379
113.099  -56.4724  544.306  0.397322  0.775774  -0.490214
43.5948  -101.216  479.81  -0.133717  0.977339  0.1641
119.204  26.4837  495.302  -0.707388  -0.527295  -0.470705
32.4334  11.4863  432.809  0.836227  0.164911  -0.522999
32.1707  11.0016  432.26  0.643291  0.221524  -0.732873
32.3376  11.9808  432.829  0.815043  0.190107  -0.547324
68.1491  -74.0393  528.816  0.960832  0.256565  0.104769
68.1136  -73.5122  528.307  0.966445  0.176215  0.186902
68.0371  -73.5035  528.81  0.973242  0.195092  0.121402
74.1598  -79.5257  520.308  0.79801  0.593515  -0.104497
67.1384  -71.0164  532.304  0.99125  0.110819  0.071713
69.5991  -63.9746  543.306  0.134302  0.750147  -0.647489
64.5976  -88.3286  506.806  -0.013178  0.838765  -0.544335
64.0714  -88.3836  506.797  -0.210367  0.801229  -0.560159
64.098  -88.0377  507.297  -0.194061  0.80795  -0.556379
49.0945  -98.8838  488.317  0.224888  0.827525  -0.51442
19.616  -91.6891  487.815  0.67545  0.733718  -0.0736531
19.3911  -91.5088  487.305  0.680369  0.731363  -0.0469752
70.1007  -63.2028  544.298  0.143523  0.739333  -0.657867
97.599  -69.2979  540.808  0.0350802  0.772258  -0.63434
97.5993  -69.7159  540.302  0.0379329  0.771939  -0.634564
64.1028  -87.6852  507.797  -0.0702032  0.836742  -0.543078
64.5988  -87.3886  508.307  0.0753621  0.837929  -0.540552
121.594  23.9804  495.654  -0.290435  -0.462743  -0.837566
121.112  23.5014  496.149  -0.40809  -0.450886  -0.793829
66.5988  -87.3857  508.806  0.126671  0.846124  -0.517715
67.0956  -87.4548  508.819  0.131302  0.840393  -0.525832
103.599  -74.3971  534.306  -0.011065  0.803953  -0.594589
50.065  -99.4882  488.201  0.511009  0.356868  -0.781994
50.5991  -99.5127  488.32  0.306134  0.547064  -0.779104
50.0991  -100.013  488.086  0.515735  0.216371  -0.828976
50.5924  -99.0112  488.824  0.268471  0.728549  -0.63019
51.0836  -99.244  488.83  0.370927  0.661714  -0.651573
29.1003  -91.7205  493.303  0.241715  0.845003  -0.477015
119.233  25.9963  495.813  -0.717087  -0.528077  -0.454886
27.5996  -91.8514  492.305  0.247992  0.844962  -0.473855
18.5991  -91.7802  485.305  0.234503  0.870121  -0.433471
65.099  -87.4554  508.306  0.126851  0.84637  -0.517268
79.5991  -87.0127  518.172  0.0748144  -0.560682  -0.824645
67.0984  -86.8482  509.808  0.106856  0.853842  -0.509447
66.5993  -87.0827  509.305  0.112434  0.858196  -0.500857
65.0977  -88.0772  507.312  0.112717  0.837675  -0.534412
64.1011  -86.6569  509.308  0.179836  0.815317  -0.550378
68.5986  -87.3511  509.308  0.102576  0.832281  -0.544782
69.0967  -87.4319  509.311  0.185745  0.706104  -0.683312
68.0939  -87.5281  508.938  0.172789  0.697023  -0.695919
85.5995  -71.6997  536.802  0.0576121  0.785404  -0.616297
69.5972  -63.5307  543.814  0.144647  0.743137  -0.653319
69.601  -64.4108  542.796  0.124763  0.759814  -0.638057
98.0992  -68.5086  541.802  0.0210057  0.775232  -0.631328
34.0979  -87.3089  502.809  0.205668  0.824353  -0.527393
33.6011  -87.5117  502.3  0.207307  0.825718  -0.524608
99.0992  -68.5382  541.803  0.0238446  0.769824  -0.637811
69.0995  -63.4408  543.804  0.153564  0.735078  -0.660362
81.5971  -86.5203  517.609  -0.139087  -0.53618  -0.832566
82.093  -87.0339  517.865  -0.150207  -0.489729  -0.858838
81.5991  -87.0127  517.932  -0.113251  -0.514799  -0.849797
118.757  -43.0084  536.316  -0.72712  -0.254486  -0.637599
70.5851  -74.3579  520.563  -0.48761  0.104415  -0.866795
70.3547  -73.875  520.755  -0.528582  0.104623  -0.84241
43.0996  -92.1748  498.304  0.169708  0.845456  -0.506362
19.593  -91.9421  485.806  0.407691  0.861176  -0.303585
120.105  29.9873  496.305  0.758515  0.593248  0.26965
44.5997  -92.4682  498.304  0.171989  0.843644  -0.50861
44.6015  -92.7735  497.798  0.169785  0.847304  -0.503239
44.0946  -92.0558  498.819  0.168043  0.846736  -0.504776
43.5991  -91.6712  499.305  0.165357  0.848244  -0.50313
28.1064  -37.5084  438.914  -0.577085  -0.339867  -0.742606
28.1019  -37.0129  438.698  -0.588619  -0.322332  -0.74137
43.5971  -91.9639  498.812  0.162671  0.846376  -0.507134
32.0995  -87.1062  502.304  0.224587  0.813874  -0.535881
114.758  -59.019  549.791  0.714582  0.268076  0.646148
114.599  -58.5887  549.805  0.738805  0.288638  0.608979
49.6019  -99.0263  488.314  0.265951  0.804791  -0.530642
49.0949  -99.2085  487.815  0.264792  0.796878  -0.543021
36.0991  -104.513  476.912  -0.66743  -0.334436  -0.66535
30.0841  -38.4953  439.231  0.372585  -0.443935  -0.814925
67.1166  -69.0277  533.313  0.924548  0.379904  0.0297475
67.2659  -69.5094  533.311  0.984213  0.176916  -0.00501311
34.5991  -104.16  477.305  -0.098652  -0.656595  -0.747764
35.0989  -103.52  476.677  -0.13585  -0.492293  -0.859763
36.0948  -103.011  476.381  -0.476874  -0.0394812  -0.878084
71.3364  -74.5073  521.893  0.937422  0.265334  0.225474
71.2152  -74.506  522.299  0.91428  0.0982226  0.392995
125.809  13.9858  503.302  0.996682  0.076775  0.027044
125.875  12.988  503.806  0.997459  0.0659951  0.0268421
125.82  13.4853  503.302  0.996319  0.00590854  -0.0855158
32.1022  -93.6347  491.299  0.20714  0.858572  -0.468985
70.9584  -75.4988  522.845  0.828258  0.216259  0.516934
71.2141  -76.0031  522.821  0.685238  0.41937  0.595464
71.6752  -76.0152  522.301  0.792135  0.346685  0.502326
65.5968  -87.8348  507.814  0.143932  0.835816  -0.529807
33.5991  -93.986  491.305  0.21833  0.859084  -0.462932
33.0956  -93.8569  491.313  0.203368  0.861938  -0.46444
49.5969  -98.7208  488.81  0.248095  0.814604  -0.52428
50.0938  -98.9911  488.671  0.28906  0.743176  -0.603436
115.099  -58.0127  548.824  0.682489  0.358498  0.636937
31.1002  -99.0967  477.812  0.328814  0.940779  0.0825585
109.091  -78.5077  527.433  0.485987  -0.3261  -0.810849
108.613  -78.524  527.149  0.539587  -0.336378  -0.771813
109.606  -78.0027  527.529  0.568346  -0.156297  -0.807808
34.1026  -92.7265  493.797  0.201694  0.854157  -0.479306
25.8459  -86.5129  466.805  0.874447  0.197632  0.44304
49.822  -100.013  487.805  0.686476  0.286145  -0.668485
49.4058  -100.014  487.308  0.720502  0.308512  -0.621045
49.6352  -99.5181  487.805  0.636238  0.381736  -0.670432
31.5993  -93.5029  491.305  0.223028  0.853631  -0.470715
71.7328  -75.0298  520.9  0.909362  0.41504  -0.0283362
26.2465  -47.5127  445.305  -0.733912  -0.266122  -0.624941
28.701  -98.0127  477.805  0.520249  0.853067  0.0402257
125.303  14.9832  503.8  0.80159  0.322147  0.503661
118.982  -30.5136  530.803  -0.742472  -0.272392  -0.611995
70.5997  -86.9659  510.302  0.159069  0.782978  -0.601367
34.1009  -92.4382  494.301  0.200416  0.848749  -0.489346
34.0971  -92.1419  494.81  0.199299  0.850711  -0.486385
120.605  -26.5105  527.047  -0.669526  -0.322348  -0.669198
25.6863  -49.5127  446.805  -0.714363  -0.328063  -0.61811
26.5459  -42.5127  442.805  -0.718568  -0.13796  -0.681636
32.6006  -99.7265  476.798  0.211783  0.891347  -0.40081
122.06  3.47064  507.889  -0.739123  -0.314554  -0.595612
121.681  3.4873  508.305  -0.74552  -0.178054  -0.642259
25.6948  -89.5117  468.307  0.967613  0.0655863  0.24377
36.5971  -91.3069  497.311  0.197253  0.836052  -0.511966
119.848  -29.5119  529.307  -0.736609  -0.273453  -0.618571
32.5993  -99.5701  477.303  0.21669  0.951895  -0.216659
28.0199  -95.0014  473.819  0.706541  -0.44794  -0.547859
71.0993  -64.6405  542.804  0.125301  0.75428  -0.644486
120.182  -26.0134  527.304  -0.720816  -0.276358  -0.63565
121.099  0.487305  510.665  -0.810001  -0.363825  -0.459924
108.596  -77.2776  527.799  -0.0515787  0.834257  -0.548959
106.6  -78.0312  526.813  -0.0771923  0.853682  -0.515041
107.019  -77.6956  527.317  -0.12426  0.886969  -0.444799
122.603  1.98986  508.019  -0.487511  -0.465879  -0.738438
123.094  3.48593  506.792  -0.456712  -0.448977  -0.768006
123.101  2.99029  507.096  -0.236995  -0.524869  -0.817524
46.5982  -98.3813  488.309  0.151676  0.864654  -0.478923
42.6002  -94.6676  493.803  0.180678  0.860438  -0.476447
28.3459  -95.0203  474.295  0.727647  -0.413998  -0.546932
103.099  -75.5119  532.807  0.00576003  0.805092  -0.593123
62.0889  -87.913  509.289  -0.355561  0.693657  -0.626431
42.5982  -95.2136  492.808  0.185249  0.860307  -0.474927
42.6006  -94.9422  493.302  0.18464  0.861488  -0.473019
43.0987  -95.3188  492.807  0.175708  0.861868  -0.47572
32.6005  -96.6748  485.802  0.219953  0.868615  -0.443993
34.598  -96.3771  487.308  0.204515  0.861745  -0.464295
33.598  -96.1387  487.308  0.210451  0.860317  -0.464289
17.6059  -85.0447  498.304  0.516923  0.726349  -0.452998
34.5979  -96.1078  487.808  0.205366  0.862932  -0.461707
35.0961  -96.2248  487.812  0.207247  0.861094  -0.46429
18.6136  -90.0706  490.297  0.479912  0.811815  -0.332626
70.176  -75.5134  520.784  -0.588678  -0.0162299  -0.808205
103.599  -74.0321  534.803  -0.0189499  0.810194  -0.585855
103.099  -74.0427  534.806  -0.0200619  0.810003  -0.586083
28.5915  -96.5076  475.727  0.660379  -0.449251  -0.601725
16.5967  -84.6524  496.829  0.535372  0.753637  -0.381324
28.8433  -53.4059  447.36  0.819229  -0.441958  -0.365428
87.1001  -75.6387  531.798  0.0740411  0.795854  -0.600944
28.0967  -39.1815  439.79  -0.233449  -0.761794  -0.604294
70.5869  -62.0068  545.7  0.234828  0.654627  -0.718553
97.5992  -74.3911  534.304  0.0159377  0.80504  -0.593006
73.6034  -65.1421  542.789  0.162428  0.752137  -0.638676
87.0985  -71.0465  537.809  0.0870292  0.790085  -0.606787
68.0484  -73.0126  528.305  0.967473  0.120031  0.222686
67.9479  -73.0113  528.809  0.977857  0.128404  0.165252
43.1026  -92.4781  497.796  0.179441  0.848269  -0.498238
43.0999  -92.7633  497.303  0.179203  0.851712  -0.492415
44.6019  -91.5817  499.797  0.171695  0.846159  -0.504515
18.1236  -89.5651  490.795  0.599991  0.723344  -0.341737
23.0988  -80.0306  508.799  0.495242  0.448602  -0.74397
23.0946  -79.5165  509.075  0.512867  0.411354  -0.753495
57.0985  -94.192  498.808  0.0946907  0.848031  -0.521419
95.5991  -72.0373  537.304  0.0279073  0.782243  -0.622347
66.4692  -65.0127  537.305  0.996821  0.0269733  0.0749667
44.0972  -92.9583  497.311  0.166809  0.853993  -0.492819
51.7178  -100.013  488.805  0.552527  0.313487  -0.772295
51.0991  -100.013  488.442  0.465494  0.205326  -0.860904
51.0873  -99.5251  488.552  0.489676  0.448568  -0.747665
123.093  0.983563  508.426  -0.252846  -0.546178  -0.798598
108.099  -63.3692  547.796  -0.00977037  0.752927  -0.658032
108.098  -63.0034  548.211  -0.0672315  0.715745  -0.695118
108.599  -63.797  547.294  -0.0206237  0.75299  -0.657709
124.113  1.47877  508.217  0.505625  -0.483616  -0.714464
124.105  1.97971  507.893  0.349534  -0.507332  -0.78768
43.5995  -93.1517  496.804  0.168662  0.854197  -0.491834
110.099  -65.0346  545.808  -0.0312262  0.755965  -0.653867
110.599  -65.4533  545.299  -0.025483  0.761212  -0.648002
57.114  -84.5261  514.034  -0.182765  0.532461  -0.826488
83.5982  -59.5755  550.812  0.0926396  0.725309  -0.682162
117.608  -37.5091  535.391  -0.717334  -0.284059  -0.636194
83.0995  -60.9169  549.302  0.0894837  0.734454  -0.672733
113.654  -69.7965  537.784  -0.311622  0.843889  -0.436742
66.6443  -65.014  536.305  0.962172  -0.193488  0.191801
66.7034  -64.5127  535.305  0.98976  0.120579  0.0763928
66.5991  -64.5145  535.805  0.937796  0.284184  0.199444
63.1094  -87.518  508.793  -0.60173  0.283144  -0.746827
63.5963  -87.5158  508.419  -0.543984  0.549077  -0.634504
84.5993  -59.6963  550.804  0.0741533  0.726656  -0.682988
66.3557  -66.0148  537.305  0.995535  -0.0939346  -0.00932719
66.4468  -65.5054  537.31  0.994829  -0.098964  -0.0228273
37.0912  -91.1109  497.825  0.202623  0.844534  -0.495687
92.5919  -82.5337  522.399  -0.0211963  0.845474  -0.533596
34.1012  -89.7966  498.801  0.207163  0.850046  -0.484257
49.0984  -88.9652  505.309  0.115552  0.841663  -0.527496
113.101  -74.5081  531.529  0.345737  0.609797  -0.713172
108.615  -63.0106  548.089  -0.481735  0.347207  -0.804598
109.092  -63.0117  547.718  -0.729036  -0.0600022  -0.68184
26.0513  -84.5096  465.31  0.963581  -0.138811  -0.228566
66.4007  -66.0108  537.8  0.977181  -0.0609197  -0.203484
66.4413  -91.0102  507.307  0.959358  -0.188188  -0.210278
84.5993  -59.2251  551.304  0.0760669  0.724608  -0.68495
109.101  -76.8708  528.317  -0.120975  0.840236  -0.528554
32.5931  -87.2313  502.32  0.221689  0.814943  -0.535463
33.0965  -87.3723  502.312  0.219623  0.818317  -0.531153
38.5999  -95.7149  490.304  0.191073  0.868312  -0.45774
85.6  -58.3932  552.298  0.0837715  0.726649  -0.681883
64.4106  -98.5123  495.304  0.90463  -0.0576115  -0.422286
64.6304  -98.5124  495.798  0.906863  -0.0822381  -0.413323
64.297  -97.5135  494.802  0.864819  -0.1279  -0.485519
64.5729  -97.5084  495.315  0.88425  -0.139366  -0.445735
16.0842  -82.5256  499.746  0.436268  0.699951  -0.565454
110.596  -77.0065  528.451  0.550842  0.275382  -0.787869
110.104  -77.5238  527.951  0.613872  0.0824491  -0.785088
15.4567  -84.5127  496.305  0.288249  0.913783  -0.286204
15.5991  -84.4294  496.805  0.224784  0.913085  -0.340217
111.101  -76.5153  528.995  0.55081  0.323543  -0.769369
111.088  -77.0151  528.82  0.659896  0.0757626  -0.747527
31.0672  -75.5255  516.529  0.379355  0.590921  -0.711971
30.592  -76.0273  515.908  0.22102  0.605426  -0.764598
16.102  -82.1732  500.297  0.19459  0.824595  -0.531205
67.6555  -71.5146  528.804  0.915967  0.276801  0.290491
67.6435  -72.0148  529.306  0.914307  0.297296  0.275061
34.105  -77.7807  516.793  0.262297  0.763216  -0.590509
33.1044  -77.7757  516.295  0.274288  0.782307  -0.559252
111.608  -75.9997  529.612  0.47901  0.447627  -0.755102
30.0991  -75.5127  516.362  0.0312854  0.775881  -0.630103
30.6161  -75.5372  516.317  0.129882  0.746628  -0.652439
109.093  -77.5092  527.515  0.111106  0.666572  -0.737114
108.598  -77.5092  527.48  0.0318317  0.802512  -0.595786
94.099  -65.8412  544.807  0.048882  0.761134  -0.64675
93.5987  -65.8048  544.811  0.0478508  0.760521  -0.647547
35.0992  -95.165  489.805  0.203536  0.870005  -0.449071
123.599  7.4897  504.283  -0.125514  -0.509917  -0.851018
100.599  -66.4962  544.306  0.0113689  0.764998  -0.643932
33.1019  -94.685  489.799  0.202786  0.858882  -0.470318
32.6025  -94.5697  489.798  0.204175  0.861093  -0.465653
33.0955  -94.3982  490.314  0.200076  0.857981  -0.473116
30.5991  -75.243  516.805  -0.0486275  0.888914  -0.455485
34.0968  -94.9222  489.81  0.215589  0.862771  -0.457326
98.0991  -67.6864  542.806  0.0190404  0.771639  -0.635776
79.0991  -57.9689  551.806  0.111963  0.714207  -0.690921
78.599  -58.3764  551.305  0.111303  0.719291  -0.685735
78.5998  -58.0086  551.683  0.118707  0.709315  -0.694824
33.6001  -94.8024  489.803  0.210618  0.858898  -0.466834
33.09  -94.116  490.826  0.204195  0.860625  -0.466507
101.599  -65.1911  545.809  -0.00992986  0.750589  -0.660695
101.099  -65.6403  545.309  -0.00643826  0.749776  -0.66166
37.0992  -90.8334  498.305  0.206013  0.845729  -0.492241
35.0999  -90.9372  497.304  0.22575  0.842796  -0.488601
32.6043  -77.9669  515.795  0.26813  0.766836  -0.583154
66.3737  -65.5041  536.797  0.986994  -0.160754  -0.000245051
95.0991  -67.5825  542.806  0.0329559  0.765162  -0.642993
66.3608  -66.515  536.806  0.99175  0.112622  0.0612302
66.5339  -67.0137  535.807  0.991023  0.00788195  0.133456
66.4054  -66.5138  536.308  0.993956  0.0351169  0.104008
26.5973  -81.8852  507.81  0.237339  0.802642  -0.547207
125.135  6.4873  509.805  0.842356  0.328934  0.426894
43.0983  -90.9727  500.308  0.163728  0.840495  -0.51649
36.0953  -94.305  491.814  0.203905  0.859663  -0.468404
34.0997  -94.1193  491.304  0.223428  0.855713  -0.466728
34.5983  -94.246  491.307  0.214007  0.855073  -0.472283
34.5953  -95.3051  489.314  0.20723  0.864662  -0.457619
82.6002  -58.034  552.298  0.0946133  0.727709  -0.679329
82.5983  -58.4888  551.811  0.0995205  0.724496  -0.682056
32.1021  -23.5165  431.469  0.36307  -0.442506  -0.819981
32.0983  -23.0116  431.194  0.358626  -0.44181  -0.822308
100.099  -66.9081  543.8  0.0162608  0.772281  -0.635072
99.0992  -67.2979  543.302  0.0134888  0.772189  -0.63525
82.5973  -58.9549  551.317  0.104786  0.721761  -0.684164
22.9732  -88.5039  467.824  -0.767604  -0.279262  -0.576886
23.0277  -87.5149  467.302  -0.779118  -0.273436  -0.564099
23.2158  -88.0154  467.3  -0.652007  -0.343421  -0.67598
66.4147  -65.5117  536.305  0.98193  -0.165044  0.0925925
